# .PCD v0.7 - Point Cloud Data file format
VERSION 0.7
FIELDS x y z
SIZE 4 4 4
TYPE F F F
COUNT 1 1 1
WIDTH 739
HEIGHT 1
VIEWPOINT 0 0 0 1 0 0 0
POINTS 739
DATA ascii
0.015192591 0.18507338 1.5780001
0.024860606 0.18507338 1.5780001
0.034528621 0.18507338 1.5780001
0.045703337 0.1853245 1.5780002
0.024860602 0.1947414 1.5780001
0.034528621 0.19474143 1.5779998
0.024860606 0.20579055 1.5780001
0.034528617 0.20579055 1.5779998
-0.012154073 0.21601103 1.5780001
0.024860604 0.21545856 1.5780001
0.034528621 0.21545856 1.5780001
-0.084249824 0.22512656 1.5779998
-0.074330702 0.22550325 1.5780002
-0.045577772 0.22512653 1.5779998
-0.025551178 0.22650772 1.5780001
-0.017494498 0.22742848 1.5780001
0.0041434336 0.22512653 1.5779998
0.015192593 0.22512653 1.5779998
0.024860606 0.22512656 1.5780001
-0.095298976 0.2347946 1.5780001
-0.084249824 0.2347946 1.5780001
-0.074581817 0.23479459 1.5780001
-0.064913794 0.2347946 1.5780001
-0.055188607 0.23456451 1.5764445
-0.045577776 0.2347946 1.5780001
-0.025205892 0.2344493 1.5780001
-0.019336024 0.23479459 1.5780001
0.015569269 0.23504575 1.5780002
-0.16297507 0.24584374 1.5780001
-0.10488734 0.24427983 1.5768335
-0.095298976 0.24446259 1.5779998
-0.084249824 0.24446259 1.5779998
-0.074581817 0.24446258 1.5780001
-0.064913794 0.24446258 1.5779998
-0.055245787 0.24446258 1.5780001
-0.046169691 0.24406798 1.5779999
-0.02624175 0.24031916 1.5780001
0.014600673 0.24406797 1.5779999
-0.20625092 0.25781366 1.5780001
-0.18369223 0.25965518 1.5780001
-0.17586574 0.25781366 1.5780001
-0.1637643 0.2559064 1.5779999
-0.15496443 0.25634047 1.5780001
-0.14529642 0.25560385 1.5779999
-0.13535216 0.25551176 1.5780001
-0.12568414 0.25551176 1.5779998
-0.11435242 0.25487611 1.5740623
-0.10488734 0.2553249 1.5768335
-0.095298976 0.25551176 1.5779998
-0.084249832 0.25551176 1.5779998
-0.074581817 0.25551176 1.5780001
-0.065190025 0.2554197 1.5779999
-0.055245783 0.25551176 1.5780001
-0.04695892 0.25551176 1.5780001
-0.20579056 0.26517972 1.5780001
-0.18507338 0.26517975 1.5780001
-0.17540537 0.26517972 1.5780001
-0.16435622 0.26517975 1.5780001
-0.15468819 0.26517975 1.5780001
-0.14502019 0.26517975 1.5780001
-0.13535218 0.26517975 1.5780001
-0.12568416 0.26517972 1.5780001
-0.11463501 0.26517975 1.5780001
-0.10496698 0.26517975 1.5780001
-0.095298976 0.26517975 1.5780001
-0.084249824 0.26517972 1.5780001
-0.074581809 0.26517975 1.5780001
-0.06795232 0.26462731 1.5780001
-0.054456566 0.26517975 1.5780002
-0.04695892 0.26517975 1.5780001
-0.17540535 0.27484778 1.5779998
-0.16435622 0.27484778 1.5779998
-0.15468821 0.27484781 1.5780001
-0.1450202 0.27484778 1.5779998
-0.13535219 0.27484778 1.5780001
-0.12568416 0.27484778 1.5779998
-0.11463501 0.27484775 1.5779998
-0.10496698 0.27484775 1.5780001
-0.095298976 0.27484775 1.5779998
-0.084249817 0.27484778 1.5779998
-0.074832931 0.2744711 1.5780002
-0.069057234 0.27070436 1.5780001
-0.27070436 0.28175351 1.5780001
-0.25136831 0.28313464 1.5780001
-0.24663299 0.28491041 1.5780002
-0.16435622 0.28451586 1.5780001
-0.15468819 0.2845158 1.5780001
-0.14528802 0.28484184 1.5774616
-0.13535218 0.2845158 1.5780001
-0.12568416 0.28451583 1.5780001
-0.11463501 0.28451583 1.5780001
-0.10496698 0.2845158 1.5780001
-0.095759369 0.28359506 1.5780001
-0.085630968 0.28382525 1.5780001
-0.075962953 0.28175351 1.5780001
-0.26241747 0.29694611 1.5780001
-0.25531444 0.2971434 1.5780002
-0.24505162 0.29505998 1.5762498
-0.20380822 0.29761499 1.5710001
-0.19525254 0.29562885 1.5710001
-0.17473456 0.29508957 1.5739471
-0.16434214 0.29485437 1.5757892
-0.15468819 0.29418379 1.5780001
-0.14469986 0.29437345 1.5775332
-0.13535218 0.29418382 1.5780001
-0.12577623 0.29390755 1.5779999
-0.11491124 0.29390761 1.5779999
-0.10417777 0.29240808 1.5780002
-0.099442415 0.29004037 1.5780001
-0.26241747 0.30799526 1.5780001
-0.25523481 0.30572689 1.5775
-0.22554171 0.30439338 1.5742308
-0.20525752 0.30582374 1.5739168
-0.19562972 0.30481058 1.5774616
-0.18551663 0.3044211 1.5724
-0.1635285 0.30524755 1.573154
-0.15468819 0.30523297 1.5780001
-0.14529642 0.30495676 1.5779999
-0.13500689 0.30350652 1.5780001
-0.12982759 0.30108953 1.5780001
-0.11739729 0.30108953 1.5780001
-0.2554096 0.31247282 1.5710001
-0.24318177 0.31507555 1.5710002
-0.23571736 0.31527197 1.571
-0.22498187 0.31488481 1.5721668
-0.1955701 0.31517717 1.5780001
-0.18535243 0.31478748 1.571
-0.17502014 0.31487912 1.571
-0.16404784 0.31432098 1.5750835
-0.15468819 0.31490093 1.5780001
-0.14640133 0.31490096 1.5780001
-0.25025326 0.32450423 1.5710001
-0.23479459 0.32560486 1.5780001
-0.22491652 0.3248511 1.5765001
-0.2145028 0.32450423 1.5710001
-0.20567413 0.32438749 1.5771248
-0.19569759 0.32488772 1.5780001
-0.18525241 0.32425424 1.5710002
-0.17466249 0.32474756 1.5742308
-0.16435622 0.32456899 1.5779998
-0.15579312 0.32208291 1.5780001
-0.25025326 0.33275434 1.5710001
-0.24391811 0.33487448 1.5744998
-0.23755687 0.33561817 1.5780001
-0.22535679 0.33607852 1.5780001
-0.21450278 0.33412939 1.5710001
-0.20538616 0.33496949 1.5749373
-0.1947414 0.33561817 1.5779998
-0.18507341 0.3356182 1.5780001
-0.17540538 0.33561817 1.5779998
-0.16527697 0.33239552 1.5780001
-0.24494927 0.34503075 1.5722729
-0.23559225 0.34546208 1.5756668
-0.22516301 0.34489691 1.5773638
-0.21483858 0.34489483 1.5716366
-0.20563535 0.34503192 1.5768335
-0.19612254 0.34459555 1.5780001
-0.18507338 0.3425239 1.5780001
-0.17678651 0.3425239 1.5780001
-0.24226967 0.35239363 1.5727501
-0.23525336 0.354754 1.5745
-0.22512655 0.35472399 1.5780001
-0.21518233 0.3557829 1.5780001
-0.20692059 0.35407528 1.5780002
-0.19750369 0.35081074 1.5780001
-0.23507933 0.3634339 1.5768335
-0.22098315 0.36185989 1.5780001
-0.23479459 0.37014675 1.5780001
-0.0083236285 0.17479619 1.585
0.0041618142 0.17479619 1.585
0.012485442 0.17340893 1.585
0.035760779 0.17417963 1.585
0.043930259 0.17387134 1.585
-0.036415875 0.18277299 1.585
-0.023583611 0.18311982 1.585
-0.015259986 0.18450709 1.5849998
0.0034681782 0.18103892 1.585
0.044392683 0.18173254 1.585
-0.05487429 0.19452627 1.585
-0.046612322 0.19394052 1.585
-0.03514421 0.19514284 1.585
-0.024046037 0.1965301 1.585
-0.015259986 0.19560525 1.5849998
-0.0055490858 0.19560525 1.585
0.05687812 0.19699252 1.585
-0.095721722 0.20531619 1.585
-0.084623545 0.20531616 1.585
-0.074912652 0.20531614 1.585
-0.0655801 0.2055684 1.5850002
-0.055490851 0.20531617 1.585
-0.024415975 0.20476127 1.585
-0.017439984 0.2049198 1.5850002
-0.0041618142 0.20531617 1.585
0.05687812 0.20531616 1.585
-0.11514352 0.21502706 1.5849998
-0.10582899 0.21284707 1.5850002
-0.095721722 0.21086524 1.585
-0.082958825 0.21419469 1.585
-0.07491266 0.21502706 1.585
-0.065735318 0.2142801 1.585
-0.017572105 0.21487291 1.585
-0.0052968548 0.2154054 1.5850002
0.056679942 0.21482889 1.5850002
-0.12485444 0.22335069 1.585
-0.11764061 0.22418307 1.585
-0.077687196 0.22196342 1.585
-0.023583613 0.22335069 1.585
-0.014982531 0.22418307 1.585
-0.0055490858 0.22473796 1.585
-0.17572105 0.23768583 1.585
-0.16369802 0.23583613 1.585
-0.15259984 0.23861067 1.585
-0.14635713 0.23421764 1.585
-0.12485442 0.23028705 1.585
-0.022196341 0.23861067 1.585
-0.014665441 0.23464704 1.5849999
-0.0055490858 0.23444884 1.585
0.0055490849 0.23444885 1.585
0.011098171 0.23306158 1.585
-0.20531617 0.24637938 1.585
-0.19560526 0.24554703 1.5849998
-0.18422963 0.24563953 1.5849999
-0.1753511 0.24610193 1.585
-0.16519201 0.24608061 1.585
-0.15537438 0.24554704 1.585
-0.14555679 0.24586719 1.585
-0.024693429 0.24637941 1.585
-0.015259987 0.24554703 1.5849998
-0.0055490858 0.24554706 1.585
0.019421799 0.24832156 1.585
-0.20531616 0.25387067 1.585
-0.19461435 0.25406885 1.5850002
-0.18533945 0.25498044 1.585
-0.17479619 0.25387067 1.585
-0.16924711 0.25387067 1.585
-0.15398711 0.25248337 1.585
-0.06103994 0.25803247 1.585
-0.041618139 0.25525793 1.585
-0.034681782 0.25525793 1.585
-0.024970885 0.25525793 1.585
-0.015259987 0.25525796 1.585
-0.0055490858 0.2552579 1.585
0.018034529 0.25525793 1.585
-0.27190518 0.26913065 1.585
-0.26543126 0.26913065 1.585
-0.25456429 0.26843703 1.585
-0.24554703 0.26913065 1.585
-0.23444885 0.26774338 1.585
-0.22612523 0.26543126 1.585
-0.18866891 0.26080701 1.585
-0.063021764 0.26675245 1.5850002
-0.058265395 0.26635611 1.585
-0.041618139 0.26496881 1.585
-0.035276331 0.2645725 1.5849999
-0.027745426 0.26358154 1.585
0.012485441 0.26219428 1.585
-0.27190518 0.27467972 1.585
-0.2652463 0.27495718 1.585
-0.25525793 0.27467972 1.585
-0.24554703 0.27467972 1.585
-0.23444888 0.27467972 1.585
-0.064823404 0.27493197 1.5850002
-0.055490851 0.27467972 1.585
-0.045625817 0.27529627 1.585
-0.036465421 0.27388701 1.5850002
-0.26496884 0.28439066 1.5849998
-0.25581285 0.28439066 1.585
-0.24385148 0.28300336 1.585
-0.094334453 0.28855246 1.585
-0.081849009 0.28716516 1.585
-0.074219018 0.2857779 1.585
-0.065201752 0.2843906 1.5849998
-0.055490851 0.28439066 1.585
-0.046374504 0.28399426 1.5849999
-0.12485442 0.29965061 1.585
-0.1109817 0.29965061 1.585
-0.10654245 0.29798588 1.585
-0.095444269 0.29576626 1.5849999
-0.084623545 0.2954888 1.5849998
-0.074912667 0.2954888 1.585
-0.065201744 0.2954888 1.5849998
-0.056184486 0.29410154 1.585
-0.13317806 0.30704939 1.585
-0.12485442 0.30519971 1.585
-0.11458861 0.30575463 1.585
-0.10543262 0.30519971 1.585
-0.09610007 0.30494747 1.5850002
-0.084623545 0.30242515 1.585
-0.074912652 0.30242515 1.585
-0.065479212 0.30298004 1.585
-0.14387986 0.31550515 1.5850002
-0.13456532 0.31491056 1.5849998
-0.12485442 0.31491062 1.585
-0.11514353 0.31491056 1.5849998
-0.10543262 0.31491059 1.585
-0.098149449 0.31387016 1.585
-0.15398711 0.32600877 1.585
-0.1456635 0.3246215 1.585
-0.13494366 0.32436928 1.5850002
-0.12564716 0.32422516 1.5850002
-0.11494534 0.32303604 1.5850002
-0.1068199 0.32184696 1.585
-0.16416045 0.33756936 1.585
-0.15537438 0.33433244 1.585
-0.14566348 0.33433241 1.5849998
-0.13502775 0.33109543 1.585
-0.1262417 0.33155784 1.585
-0.19283071 0.34820509 1.585
-0.18450707 0.34820509 1.585
-0.17439982 0.34761056 1.5850002
-0.16508529 0.34543052 1.5849998
-0.15629925 0.34311843 1.585
-0.14890046 0.3421936 1.585
-0.20439133 0.35699114 1.585
-0.19505034 0.35569629 1.585
-0.1846332 0.35488924 1.5850002
-0.17444937 0.35479465 1.585
-0.16924712 0.35514149 1.585
-0.23121189 0.36577722 1.585
-0.22504623 0.36593136 1.585
-0.21447216 0.36679456 1.585
-0.20506391 0.36523071 1.5850002
-0.19676131 0.36415872 1.585
-0.18866891 0.36069053 1.585
-0.23167431 0.37456328 1.585
-0.22418304 0.37400836 1.585
-0.21641435 0.37337416 1.5850002
-0.20809069 0.37178871 1.585
-0.22196341 0.38149962 1.585
0.051091265 0.15513167 1.5920002
0.025479281 0.16362476 1.5920002
0.03576389 0.16488546 1.5920002
0.043659806 0.16534992 1.5920001
-0.011147185 0.17278138 1.5920001
-0.0041801948 0.17556816 1.5920002
-0.0041801948 0.18392858 1.5920002
-0.075243503 0.19228896 1.5920002
-0.17521983 0.22573048 1.5920001
-0.16720778 0.22851729 1.5920001
-0.15397051 0.22538216 1.5920001
0.080817096 0.22851729 1.5920001
-0.2037458 0.23656803 1.5920001
-0.19451839 0.23297618 1.5920001
-0.18578641 0.2334716 1.5920001
-0.17525853 0.23440054 1.5920001
-0.16590728 0.23539139 1.5920004
-0.15631394 0.23510425 1.5920001
0.075243503 0.23130409 1.5920002
-0.20622292 0.24245128 1.5920001
-0.18950215 0.24523808 1.5920001
-0.17278138 0.24384469 1.5920001
-0.16581438 0.24245128 1.5920001
-0.24454139 0.25847536 1.5920001
-0.23492694 0.25694266 1.5920001
-0.22732297 0.25439471 1.5920002
0.019507574 0.25917205 1.5920001
0.025638526 0.2569426 1.5920001
-0.27199131 0.26530302 1.5920001
-0.26474562 0.26474565 1.5920001
-0.25511852 0.26449233 1.5920001
-0.24523807 0.26474565 1.5920001
-0.23548429 0.26335225 1.5920001
-0.024732819 0.26474565 1.5920001
0.0083603887 0.26753244 1.5920001
0.016720777 0.26544234 1.5920001
-0.26474565 0.27310604 1.5920002
-0.24663147 0.27031925 1.5920001
-0.025081167 0.27310601 1.5920001
-0.015327379 0.27380273 1.5920001
-0.041801944 0.28843343 1.5920001
-0.036925051 0.28425321 1.5920001
-0.052949131 0.2981872 1.5920002
-0.044031382 0.29484305 1.5920001
-0.091964275 0.3093344 1.5920001
-0.084997289 0.30794099 1.5920001
-0.075800858 0.30766234 1.5920001
-0.065211035 0.30766231 1.5920001
-0.053994182 0.30341244 1.5920001
-0.093078993 0.31546536 1.5920001
-0.13097943 0.32884195 1.5920001
-0.12261904 0.32744855 1.5920001
-0.11593073 0.32828459 1.5920001
-0.10430581 0.32565707 1.5920002
-0.096608937 0.32141051 1.5920002
-0.13488095 0.3377597 1.5920001
-0.12500773 0.33680427 1.5920002
-0.11744357 0.33361933 1.5920002
-0.15327379 0.34765285 1.5920001
-0.14456506 0.34591109 1.5920001
-0.13608855 0.34370488 1.5920002
-0.12819263 0.34277594 1.5920001
-0.18392855 0.35949671 1.5920001
-0.17835496 0.35949671 1.5920001
-0.16442099 0.35670993 1.5920001
-0.15633927 0.35448048 1.5920001
-0.14770021 0.35113633 1.5920001
-0.19228895 0.36646372 1.5920001
-0.18547677 0.36476067 1.5920001
-0.17501083 0.36339828 1.5920001
-0.16546604 0.36402526 1.5920001
-0.15745398 0.36367691 1.5920001
-0.22642718 0.3769142 1.5920001
-0.21402597 0.37788957 1.5920001
-0.20498437 0.37590787 1.5920001
-0.19507575 0.37203732 1.5920001
-0.18950215 0.37064391 1.5920001
-0.2236404 0.38457787 1.5920001
-0.21737011 0.38318449 1.5920001
-0.22294371 0.39015147 1.5920001
0.025669117 0.13537821 1.6070002
0.03401475 0.13545293 1.6046668
0.015432737 0.14451154 1.6030627
0.02524294 0.14444645 1.6023335
0.035027619 0.14431778 1.6008753
0.042012002 0.1428408 1.6000001
-0.014618076 0.15598601 1.6056002
-0.0053325482 0.15487008 1.6028003
0.015022474 0.1537894 1.6000003
-0.035124883 0.16437982 1.6052502
-0.025278496 0.16391495 1.6044548
-0.064583831 0.17549114 1.6040835
-0.055010054 0.17512202 1.603267
-0.10502377 0.18474051 1.6060003
-0.094435275 0.18380953 1.6056004
-0.084653795 0.18420258 1.6037695
-0.075443231 0.18312876 1.6021003
-0.064418405 0.18205202 1.6000001
-0.058816802 0.18205202 1.6
-0.14402835 0.19916421 1.6070002
-0.13502659 0.19832031 1.6070002
-0.12434154 0.19613075 1.6059233
-0.11516877 0.19521827 1.6046669
-0.10534195 0.1944311 1.600467
-0.095227204 0.19045441 1.6000001
-0.16371974 0.20760337 1.6070002
-0.15471797 0.20535295 1.6070002
-0.14471808 0.20512727 1.6052502
-0.13508259 0.20455098 1.6035001
-0.12556921 0.20259123 1.6000001
-0.1148328 0.20165762 1.6000001
-0.19410071 0.21871492 1.6070001
-0.18387143 0.2160937 1.6070002
-0.17460552 0.21523005 1.6048465
-0.16451848 0.21513887 1.6065627
-0.15438303 0.21472481 1.6035002
-0.14693473 0.21299212 1.6010002
-0.21379209 0.22785735 1.6070001
-0.20461264 0.22624986 1.6056002
-0.19580464 0.225159 1.6032311
-0.1851224 0.22438669 1.6023335
-0.17444986 0.22326379 1.6000001
-0.16537866 0.22525851 1.6012729
-0.15777841 0.22313043 1.6000001
-0.23067041 0.23910958 1.6070001
-0.22389014 0.23512737 1.6054447
-0.21484862 0.23450096 1.6043752
-0.20678571 0.23271762 1.60175
-0.19885682 0.23246641 1.6
-0.2503618 0.24754873 1.6070001
-0.24236242 0.24727607 1.6052501
-0.23535089 0.24518923 1.6063002
0.074358046 0.2441179 1.602917
0.084391616 0.24473567 1.6070002
0.091289461 0.24578278 1.6046669
-0.27440059 0.25624362 1.6070002
-0.26365915 0.25524038 1.6023335
-0.25481901 0.2543481 1.6040835
-0.2454903 0.25389829 1.6019093
0.064700238 0.25598788 1.6070002
0.07422135 0.25360763 1.6070002
0.084039986 0.25282323 1.6070002
0.092427067 0.25514525 1.6061252
-0.27261123 0.26140803 1.6000001
-0.26607603 0.26047441 1.6000001
0.044923086 0.26391923 1.6038891
0.053760588 0.26380196 1.6070002
0.066106766 0.26161399 1.6070001
0.095643826 0.26161399 1.6070001
0.016244641 0.27671906 1.6
0.025624821 0.27545196 1.6010002
0.0443056 0.27075642 1.6070001
0.050634969 0.27005318 1.6070001
0.0048013721 0.28468138 1.6000003
0.015443459 0.28498656 1.6039377
0.024754873 0.28243062 1.6070002
-0.025317485 0.29537067 1.6070002
-0.015471796 0.29537064 1.6070002
-0.0056261076 0.29537067 1.6070002
0.0028130538 0.29398298 1.6060003
0.011252215 0.2925576 1.6070001
-0.024754874 0.30212197 1.6070002
-0.019691376 0.30099675 1.6070001
-0.073691681 0.31438825 1.6007003
-0.063298084 0.31480995 1.6
-0.055125635 0.31418583 1.6038184
-0.093275182 0.3264792 1.6026251
-0.07492952 0.32324547 1.6070002
-0.0651021 0.32269749 1.6070002
-0.05907413 0.32068813 1.6070001
-0.11371248 0.33721635 1.6
-0.095643826 0.33405012 1.6070002
-0.13303801 0.34729922 1.6
-0.12366486 0.34545845 1.6015557
-0.11524944 0.34434995 1.6058335
-0.1075993 0.3424893 1.6070001
-0.15264361 0.35710204 1.6
-0.14334561 0.35434017 1.6017501
-0.13515458 0.35351723 1.6043752
-0.12729068 0.35233501 1.6070001
-0.18345241 0.36970562 1.6
-0.17589025 0.36914548 1.6
-0.16618082 0.36877203 1.6000001
-0.15411754 0.3661482 1.600778
-0.14487226 0.36429051 1.6070002
-0.13690196 0.36100858 1.6070001
-0.19386089 0.37745017 1.6011667
-0.18426991 0.37646189 1.6038184
-0.17474404 0.37617776 1.6049002
-0.16627052 0.3759127 1.6060003
-0.15641698 0.37282991 1.6014003
-0.14515357 0.37188575 1.6070002
-0.21366104 0.38571021 1.6000001
-0.20455407 0.38490367 1.6035002
-0.19536327 0.38511068 1.6058335
-0.18481764 0.38482577 1.6070002
-0.22174723 0.39437628 1.6035001
-0.21480051 0.39477754 1.6064618
-0.20560868 0.3953619 1.6070002
0.031097636 0.12721761 1.6150001
0.0045232926 0.13739501 1.6150001
0.015548818 0.13334289 1.6150001
0.024736755 0.13075142 1.6150001
0.031097636 0.13004465 1.6150001
-0.053007334 0.15760848 1.6150001
-0.045232922 0.15595937 1.6150001
-0.074210271 0.16714981 1.615
-0.065022334 0.16444054 1.6150001
-0.057106566 0.16227312 1.6150001
-0.11025526 0.17810464 1.6150001
-0.10460114 0.17669111 1.6150001
-0.093858324 0.17471218 1.6150001
-0.085215598 0.17446987 1.6150001
-0.13216494 0.1887061 1.6150001
-0.12398668 0.18739356 1.6150001
-0.11590938 0.18344463 1.615
-0.1074282 0.1809317 1.6150001
-0.15478142 0.19718729 1.6150001
-0.14597899 0.19481 1.615
-0.13428524 0.19365346 1.615
-0.12721761 0.19223994 1.6150001
-0.18234524 0.20920227 1.6150001
-0.17527759 0.20778875 1.6150001
-0.16538291 0.20354818 1.615
-0.15548819 0.20072111 1.6150001
-0.20166346 0.21674111 1.6150001
-0.19450158 0.21542183 1.6150001
-0.18729259 0.2127361 1.6150001
-0.22333758 0.22616464 1.615
-0.21450301 0.22369093 1.615
-0.20708197 0.22121727 1.6150001
-0.19789405 0.22051051 1.6150001
-0.24272312 0.23545355 1.6150001
-0.23429243 0.23499919 1.615
-0.22899169 0.23464581 1.6150001
-0.27479002 0.24821568 1.6150001
-0.24595404 0.24312697 1.615
-0.28270578 0.25160816 1.6150001
0.087638795 0.25726226 1.6150001
0.058425866 0.26762813 1.6150001
0.064079978 0.26621461 1.6150001
0.074917033 0.26220962 1.615
0.08410497 0.26079607 1.6150001
0.092350557 0.26291639 1.6150001
0.037317164 0.27874792 1.6150001
0.044667512 0.27648625 1.6150001
0.054279514 0.27309379 1.6150001
0.026150286 0.28765315 1.6150001
0.032511167 0.28270578 1.6150001
0.0056541162 0.29825461 1.6150001
0.014135289 0.29542756 1.6150001
0.02544352 0.29118699 1.6150001
-0.031097636 0.30814931 1.6150001
-0.015163313 0.30557927 1.615
-0.0065964684 0.30437991 1.6150001
0 0.30249518 1.6150001
-0.045232926 0.31804401 1.6150001
-0.035944022 0.31299573 1.6150001
-0.070676446 0.32793871 1.6150001
-0.063608795 0.32793871 1.6150001
-0.055598803 0.32511169 1.615
-0.091879375 0.3378334 1.6150001
-0.084458359 0.33394623 1.615
-0.074917033 0.33359283 1.615
-0.065426201 0.3327851 1.6150001
-0.057247922 0.33147252 1.6150001
-0.10516655 0.34546646 1.6150001
-0.097533494 0.34207401 1.6150001
-0.11449584 0.35281682 1.615
-0.1074282 0.35055518 1.6150001
-0.13318583 0.36531869 1.615
-0.12721761 0.36327693 1.6150001
-0.13626419 0.37147543 1.6150001
-0.17527759 0.38518664 1.6150001
0.019875178 0.12776901 1.6220001
0.025553804 0.12634936 1.6220001
0.031232424 0.1249297 1.6220001
0.004258967 0.13344763 1.622
0.014196556 0.13131815 1.6220001
-0.062464848 0.15900142 1.6220001
-0.055366568 0.15616211 1.6220001
-0.082340024 0.16751936 1.6220001
-0.07609354 0.1641122 1.6220001
-0.066723816 0.16184074 1.6220001
-0.11470818 0.17774089 1.6220001
-0.10505452 0.17319798 1.6220001
-0.095116928 0.17248815 1.6220001
-0.15616211 0.18550168 1.6220001
-0.14196557 0.18739454 1.6220001
-0.1348673 0.18597488 1.6220001
-0.1249297 0.1836088 1.6220001
-0.16468006 0.19875179 1.6220001
-0.15584666 0.19244219 1.622
-0.14480489 0.19023387 1.6220001
-0.13912626 0.19023386 1.6220001
-0.19165352 0.20726973 1.6220001
-0.18455523 0.20726973 1.6220001
-0.17433372 0.20329468 1.6220001
-0.22572523 0.21862696 1.6220001
-0.21465193 0.21805911 1.6220001
-0.20443043 0.21375957 1.6220001
-0.1959125 0.21173149 1.6220001
-0.18739454 0.21010904 1.6220001
-0.23509498 0.22629313 1.622
-0.2271449 0.2243056 1.6220001
-0.21862696 0.22146627 1.6220001
-0.23850214 0.23282352 1.6220001
0.068143472 0.26973456 1.6220001
0.075850174 0.26851773 1.6220001
0.084232897 0.26594883 1.6220001
0.09085796 0.26405594 1.6220001
0.056786224 0.27683285 1.6220001
0.06530416 0.27328372 1.6220001
0.07240244 0.27257389 1.6220001
0.036059257 0.28733832 1.622
0.055366568 0.28109181 1.6220001
0.018928742 0.29718125 1.6220001
0.025553804 0.29670805 1.6220001
0.033361908 0.29315889 1.6220001
-0.0037857485 0.3085385 1.6220001
0.0040561589 0.30502313 1.6220001
0.014196556 0.30096704 1.6220001
-0.033361908 0.31729305 1.6220001
-0.005678623 0.31402785 1.6220001
0.0017035868 0.31629929 1.6220001
-0.051107604 0.32794046 1.6220001
-0.036911048 0.32084221 1.6220001
-0.063884504 0.33787805 1.6220001
-0.054514777 0.33503875 1.6220001
-0.048268292 0.33219942 1.6220001
-0.085179336 0.34355664 1.622
-0.075132549 0.34399348 1.622
-0.066439882 0.34242091 1.6220001
-0.10647418 0.35491392 1.6220001
-0.12436184 0.36570331 1.6220001
-0.11499211 0.36153898 1.6220001
-0.13060832 0.37194976 1.6220001
0.0028673194 0.1175601 1.6380002
0.024372214 0.1175601 1.6380001
-0.011469278 0.1247284 1.6380001
-0.0065538725 0.12575245 1.6380002
0.0042939768 0.12453233 1.6355004
0.01511682 0.1244183 1.6340003
0.024932628 0.12139821 1.6345717
-0.020071236 0.13619767 1.6380001
0.0014266577 0.1312525 1.6300001
-0.060213707 0.1491006 1.6380001
-0.11469278 0.16917184 1.6380001
-0.10494388 0.16515762 1.6380005
-0.13661605 0.17711411 1.6357147
-0.12483307 0.17607687 1.6356003
-0.1159045 0.17401528 1.6326668
-0.10557267 0.17119893 1.6300001
-0.097012721 0.17119893 1.6300001
-0.17203917 0.18924308 1.6380001
-0.16460012 0.18750134 1.6353335
-0.15312794 0.18594107 1.6300001
-0.14559688 0.18461242 1.6308891
-0.13577929 0.18222968 1.6330001
-0.19592473 0.19878855 1.6340001
-0.18508482 0.19731705 1.6358185
-0.16558254 0.19413126 1.6308891
-0.21504895 0.20931432 1.6380002
-0.20503108 0.20625395 1.6300002
-0.19560966 0.20417541 1.6313337
-0.1854655 0.20401204 1.6300001
-0.22523464 0.21482584 1.6343639
-0.21495967 0.21410227 1.6308002
-0.20829202 0.21257199 1.6300001
0.045393653 0.29492903 1.6300001
0.054559596 0.29341921 1.6308891
0.015693234 0.30601805 1.6300001
0.034715336 0.30340254 1.6300001
-0.0057066306 0.31814465 1.6300001
0.0057066306 0.31386471 1.6300001
0.013902973 0.31392571 1.6345717
0.020071236 0.31253782 1.6380001
-0.008559946 0.32242462 1.6300001
0.0086387182 0.11806248 1.6450001
0.015117757 0.11734259 1.6450001
-0.020157009 0.12814099 1.6450001
-0.014397865 0.12670122 1.6450002
-0.0046073161 0.12382163 1.6450001
-0.044633381 0.13533992 1.6450001
-0.023036582 0.13533992 1.6450001
-0.07198932 0.14973779 1.6450001
-0.06540744 0.14809233 1.6450002
-0.054711886 0.14685822 1.6450002
-0.035130788 0.1422509 1.6450001
-0.10174491 0.15741664 1.6450002
-0.095985755 0.15741664 1.6450002
-0.086387187 0.1583765 1.6450001
-0.07429298 0.15492101 1.6450001
-0.067669958 0.15261737 1.6450001
-0.12382164 0.16701524 1.6450003
-0.11518291 0.16471158 1.6450003
-0.10078505 0.16125607 1.6450001
-0.095601812 0.1624079 1.6450001
-0.13342021 0.17373423 1.6450002
-0.05353117 0.13889168 1.6530001
-0.043403655 0.1374449 1.6530001
-0.034459874 0.13494591 1.6530001
-0.073786214 0.14757241 1.6530001
-0.060765114 0.14467885 1.6530001
-0.054254565 0.14395544 1.6530001
-0.094330609 0.15567444 1.6530001
-0.077403173 0.15263617 1.6530001
-0.31122258 0.31587541 1.7720002
-0.30708674 0.31484145 1.7720001
0.134736 0.12533581 1.7900001
