# .PCD v0.7 - Point Cloud Data file format
VERSION 0.7
FIELDS x y z
SIZE 4 4 4
TYPE F F F
COUNT 1 1 1
WIDTH 1486
HEIGHT 1
VIEWPOINT 0 0 0 1 0 0 0
POINTS 1486
DATA ascii
-0.68971282 0.87781632 2.1070001
-0.52128029 0.87412804 2.1070001
-0.68971282 0.8815046 2.1070001
-0.52005082 0.8833487 2.1070001
-0.85354388 -0.077932268 2.1200001
-0.84241068 0.0074221208 2.1200001
-0.8331331 0.0055665905 2.1200001
-0.85354388 0.016699772 2.1200001
-0.84612179 0.014225732 2.1200001
-0.83684409 0.012988712 2.1200001
-0.86096603 0.029688483 2.1200001
-0.85632718 0.025049658 2.1200001
-0.85725492 0.035255075 2.1200001
-0.85354388 0.27832952 2.1200001
-0.84983283 0.46573806 2.1200001
-0.84983283 0.4787268 2.1200001
-0.77932268 0.49728209 2.1200001
-0.77932268 0.50099313 2.1200001
-0.85478085 0.57521439 2.1200004
-0.84797728 0.57706988 2.1200001
-0.77375609 0.57521439 2.1200001
-0.76447845 0.57706988 2.1200001
-0.85354388 0.58263648 2.1200001
-0.84797728 0.58263648 2.1200001
-0.7570563 0.58449197 2.1200001
-0.84797728 0.59005862 2.1200001
-0.75705636 0.59376973 2.1200004
-0.75705636 0.61603606 2.1200004
-0.7570563 0.62531364 2.1200001
-0.75705636 0.63459134 2.1200004
-0.71437913 0.63830239 2.1200001
-0.70510149 0.63582838 2.1200004
-0.6939683 0.63459134 2.1200004
-0.71376061 0.64572453 2.1200004
-0.76447845 0.68376285 2.1200001
-0.7570563 0.68654615 2.1200001
-0.72736782 0.68654615 2.1200001
-0.75520074 0.69025725 2.1200001
-0.74777865 0.69025725 2.1200001
-0.73417151 0.6939683 2.1200001
-0.72613084 0.69644231 2.1200004
-0.52697057 0.69025725 2.1200001
-0.73107892 0.70695698 2.1200001
-0.72588342 0.70435923 2.1200001
-0.71252358 0.70881253 2.1200001
-0.5418148 0.70510149 2.1200001
-0.53810376 0.70139039 2.1200001
-0.73107898 0.71623468 2.1200004
-0.72736782 0.71623468 2.1200004
-0.71252358 0.71623468 2.1200001
-0.54923695 0.71623468 2.1200001
-0.73107892 0.72551227 2.1200001
-0.72613084 0.72489381 2.1200004
-0.71994573 0.72365677 2.1200001
-0.73107892 0.73293447 2.1200001
-0.72736782 0.73107892 2.1200001
-0.72588342 0.74666542 2.1200001
-0.72489375 0.75458229 2.1200004
-0.54923695 0.7570563 2.1200001
-0.71994573 0.7607674 2.1200001
-0.53439271 0.76633394 2.1200001
-0.52697057 0.76818949 2.1200001
-0.52325952 0.77190053 2.1200001
-0.51583743 0.77375609 2.1200001
-0.50841528 0.77932268 2.1200001
-0.71994573 0.78488922 2.1200001
-0.50841528 0.78303373 2.1200001
-0.71809018 0.79045588 2.1200001
-0.50841528 0.79602242 2.1200001
-0.71716243 0.80530012 2.1200001
-0.50841528 0.80344462 2.1200001
-0.71747172 0.81519628 2.1200004
-0.71809024 0.82385552 2.1200001
-0.71716243 0.83406085 2.1200001
-0.71376061 0.84612179 2.1200004
-0.70881253 0.84797728 2.1200001
-0.51336336 0.84612179 2.1200004
-0.70510149 0.85725492 2.1200001
-0.51831144 0.85478085 2.1200004
-0.70262742 0.86220306 2.1200004
-0.52449656 0.86715114 2.1200004
-0.69582379 0.87581027 2.1200001
-0.52325952 0.87395477 2.1200001
-0.51954848 0.87766576 2.1200001
-0.69025725 0.88694346 2.1200001
-0.51954848 0.88508791 2.1200001
-0.69025725 0.8906545 2.1200001
-0.51954848 0.8906545 2.1200001
-0.85504407 -0.074676335 2.1330001
-0.83637494 0.0074676336 2.1330001
-0.85131025 0.018669084 2.1330001
-0.84384263 0.018669084 2.1330001
-0.83637494 0.013068359 2.1330001
-0.85566634 0.026136719 2.1330004
-0.84384257 0.022402901 2.1330001
-0.85753334 0.036093563 2.1330001
-0.85877788 0.044805802 2.1330001
-0.84384257 0.10267996 2.1330001
-0.84757644 0.43685657 2.1330001
-0.84757644 0.4443242 2.1330001
-0.78410155 0.49659765 2.1330001
-0.78783536 0.50219834 2.1330001
-0.78783536 0.5115329 2.1330001
-0.8541106 0.57407433 2.1330001
-0.84633183 0.57749701 2.1330001
-0.76729929 0.57874161 2.1330001
-0.84757644 0.58247542 2.1330001
-0.7616986 0.58247542 2.1330001
-0.75703138 0.58714271 2.1330001
-0.75672024 0.59492147 2.1330001
-0.75796479 0.61607975 2.1330001
-0.75796479 0.63661575 2.1330001
-0.70942521 0.63474888 2.1330001
-0.69635677 0.63474888 2.1330001
-0.76294327 0.64843959 2.1330001
-0.75796479 0.64595032 2.1330001
-0.72187126 0.64843953 2.1330001
-0.72436047 0.65528488 2.1330001
-0.72436047 0.66461945 2.1330001
-0.7616986 0.68515539 2.1330001
-0.73182809 0.68702227 2.1330001
-0.75796479 0.69075608 2.1330001
-0.73805112 0.6944899 2.1330001
-0.53020197 0.69822371 2.1330001
-0.73556191 0.7056914 2.1330001
-0.72436047 0.70942521 2.1330001
-0.54140341 0.70942521 2.1330001
-0.72436047 0.71465254 2.1330001
-0.71689284 0.71689284 2.1330001
-0.54513729 0.71440363 2.1330001
-0.72510725 0.72212017 2.1330001
-0.54887104 0.72062665 2.1330001
-0.73182809 0.73929572 2.1330001
-0.72498286 0.7343173 2.1330004
-0.7150259 0.73182809 2.1330001
-0.73182809 0.74302953 2.1330001
-0.7262274 0.74489641 2.1330001
-0.72436047 0.75236404 2.1330001
-0.54289693 0.75423098 2.1330001
-0.72311586 0.76543248 2.1330001
-0.54420376 0.76263213 2.1330001
-0.5376696 0.76916623 2.1330001
-0.72062665 0.77663392 2.1330001
-0.52646816 0.7729001 2.1330001
-0.51900053 0.77663392 2.1330001
-0.72187126 0.78410149 2.1330001
-0.5115329 0.78036773 2.1330001
-0.50779909 0.78596842 2.1330001
-0.72062665 0.79156917 2.1330001
-0.71689284 0.7990368 2.1330001
-0.50630563 0.7945562 2.1330001
-0.71689284 0.80463755 2.1330001
-0.50779909 0.80463755 2.1330001
-0.71539927 0.81471884 2.1330001
-0.5115329 0.81583893 2.1330001
-0.7168929 0.8251735 2.1330001
-0.5115329 0.8251735 2.1330001
-0.71564829 0.83513039 2.1330001
-0.7150259 0.84384263 2.1330004
-0.5115329 0.84757644 2.1330001
-0.70818061 0.85753334 2.1330001
-0.51526672 0.85691094 2.1330001
-0.70289099 0.86531204 2.1330001
-0.52273434 0.86811244 2.1330001
-0.51713365 0.86624551 2.1330004
-0.70195758 0.87371314 2.1330001
-0.69822371 0.87744695 2.1330001
-0.52273434 0.87558007 2.1330001
-0.51775593 0.87495774 2.1330001
-0.69448996 0.88416785 2.1330001
-0.51750702 0.88416779 2.1330001
-0.69075608 0.89424908 2.1330001
-0.51713359 0.89424908 2.1330001
-0.84186453 0.01879162 2.1470001
-0.85439229 0.025055494 2.1470001
-0.84487122 0.024804937 2.1470001
-0.86065614 0.033824913 2.1470001
-0.85501873 0.033824917 2.1470003
-0.8456229 0.033824909 2.1470001
-0.85501862 0.045099884 2.1470003
-0.8456229 0.045099888 2.1470001
-0.85501868 0.054495696 2.1470001
-0.84750199 0.054495696 2.1470001
-0.85501873 0.063891508 2.1470003
-0.8484416 0.062951922 2.1470001
-0.84812844 0.077672027 2.1470001
-0.84938121 0.084562287 2.1470001
-0.84938121 0.092078932 2.1470001
-0.84938121 0.33824915 2.1470001
-0.84938121 0.34576577 2.1470001
-0.84938121 0.35516161 2.1470001
-0.84938121 0.46603215 2.1470001
-0.85539454 0.48557544 2.1470001
-0.85595822 0.49515918 2.1470001
-0.81305075 0.4986043 2.1470001
-0.80803961 0.49609876 2.1470001
-0.79488552 0.49985707 2.1470001
-0.85689783 0.50549453 2.1470001
-0.81179798 0.50361538 2.1470001
-0.80428129 0.50361538 2.1470001
-0.79676467 0.50549453 2.1470001
-0.85689783 0.51489037 2.1470001
-0.79300636 0.51113206 2.1470001
-0.85689783 0.52616537 2.1470001
-0.84938121 0.57878184 2.1470001
-0.84938121 0.58629853 2.1470001
-0.76481891 0.58254021 2.1470001
-0.75918144 0.58441937 2.1470001
-0.7566759 0.59381521 2.1470001
-0.75824189 0.60415053 2.1470001
-0.75918144 0.63515675 2.1470001
-0.75792873 0.64517891 2.1470001
-0.76293975 0.65770668 2.1470001
-0.75792873 0.65144283 2.1470001
-0.73287314 0.65394843 2.1470001
-0.72911483 0.65019 2.1470001
-0.76544535 0.66522336 2.1470001
-0.75918144 0.66146499 2.1470001
-0.76481891 0.68401492 2.1470001
-0.75918144 0.68777329 2.1470001
-0.7347523 0.68213576 2.1470001
-0.76293975 0.6915316 2.1470001
-0.75542307 0.69341081 2.1470003
-0.74414814 0.69341075 2.1470001
-0.54119861 0.71408153 2.1470001
-0.72911483 0.72159815 2.1470001
-0.55435276 0.72911483 2.1470001
-0.5454939 0.72535652 2.1470003
-0.55497921 0.73412597 2.1470001
-0.72535652 0.74461794 2.1470001
-0.7178399 0.74414814 2.1470001
-0.55435276 0.74226904 2.1470001
-0.72385323 0.75467139 2.1470001
-0.55435276 0.75166476 2.1470001
-0.54683614 0.75166476 2.1470001
-0.72660935 0.76419252 2.1470001
-0.54119861 0.76669806 2.1470001
-0.72410381 0.77546751 2.1470003
-0.54119861 0.77045637 2.1470001
-0.53618753 0.77296197 2.1470001
-0.52616537 0.77797306 2.1470001
-0.72535652 0.78624135 2.1470001
-0.51489037 0.78298414 2.1470001
-0.50612092 0.78799522 2.1470001
-0.72159815 0.79488552 2.1470001
-0.50486815 0.79425919 2.1470001
-0.72159815 0.80052298 2.1470001
-0.71783984 0.80803961 2.1470001
-0.50549453 0.80428129 2.1470001
-0.71658707 0.81555629 2.1470001
-0.51113206 0.81743544 2.1470001
-0.50737369 0.81179798 2.1470001
-0.71408153 0.82589161 2.1470001
-0.51113206 0.82307291 2.1470001
-0.71455133 0.83387816 2.1470001
-0.7065649 0.8343479 2.1470001
-0.71408153 0.8456229 2.1470001
-0.71220243 0.85501868 2.1470001
-0.51301122 0.85501868 2.1470001
-0.71032321 0.86065614 2.1470001
-0.70531213 0.86441445 2.1470001
-0.51301122 0.86441457 2.1470003
-0.70280659 0.87568945 2.1470001
-0.69904822 0.87944776 2.1470001
-0.51489037 0.87568945 2.1470001
-0.69528991 0.88508523 2.1470001
-0.68589413 0.88696444 2.1470001
-0.5161432 0.8844589 2.1470001
-0.69247115 0.89448106 2.1470001
-0.68448466 0.89495087 2.1470001
-0.51582992 0.89448106 2.1470001
-0.6915316 0.90199775 2.1470001
-0.68401498 0.90199775 2.1470001
-0.67649829 0.90199775 2.1470001
-0.51489037 0.90199775 2.1470001
-0.84318089 -0.13800943 2.1600001
-0.84696198 0.052935123 2.1600001
-0.85074306 0.066168904 2.1600001
-0.85452414 0.073352955 2.1600001
-0.85452414 0.34785938 2.1600001
-0.85074306 0.46885395 2.1600001
-0.85200346 0.47515577 2.1600003
-0.84696198 0.47263503 2.1600001
-0.85515428 0.48397827 2.1600001
-0.85389394 0.49532151 2.1600001
-0.82380283 0.49579415 2.1600001
-0.81545299 0.4928008 2.1600003
-0.80591029 0.49640185 2.1600001
-0.79780793 0.49910259 2.1600001
-0.85641468 0.50477421 2.1600001
-0.82427549 0.50477421 2.1600001
-0.80789083 0.50414407 2.1600003
-0.85679287 0.51347071 2.1600001
-0.82200682 0.51347071 2.1600001
-0.81482285 0.51422691 2.1600001
-0.8058427 0.51469958 2.1600001
-0.85679287 0.52557015 2.1600001
-0.81576806 0.52462488 2.1600001
-0.80537009 0.52178907 2.1600003
-0.81671333 0.53313231 2.1600001
-0.81671333 0.55203772 2.1600001
-0.80347955 0.57850528 2.1600001
-0.79402685 0.57850528 2.1600003
-0.78646469 0.57850528 2.1600001
-0.76566875 0.57850528 2.1600001
-0.85074306 0.58228636 2.1600001
-0.79402685 0.58228636 2.1600003
-0.78646469 0.58228636 2.1600001
-0.77323091 0.58228636 2.1600001
-0.76566875 0.58228636 2.1600001
-0.75999713 0.58984852 2.1600001
-0.75810659 0.59552014 2.1600001
-0.75558585 0.60623324 2.1600001
-0.75716132 0.61348027 2.1600001
-0.74109173 0.65412688 2.1600001
-0.73542011 0.6503458 2.1600001
-0.75873679 0.66420978 2.1600003
-0.74298227 0.66168904 2.1600001
-0.73731065 0.66736066 2.1600001
-0.73731065 0.67492282 2.1600001
-0.75772852 0.68588799 2.1600001
-0.74487281 0.68626606 2.1600001
-0.73731065 0.68059444 2.1600001
-0.75527078 0.69288296 2.1600001
-0.74487281 0.69193769 2.1600003
-0.53313231 0.70706201 2.1600001
-0.54069448 0.71651471 2.1600001
-0.53691339 0.71084309 2.1600001
-0.54195487 0.72596741 2.1600003
-0.55203772 0.73731065 2.1600001
-0.54447556 0.73579824 2.1600001
-0.55298299 0.74392754 2.1600001
-0.5463661 0.74487281 2.1600001
-0.72218633 0.75810659 2.1600001
-0.71840525 0.75621605 2.1600003
-0.54321522 0.75747645 2.1600003
-0.72407687 0.76566875 2.1600001
-0.54321522 0.76629895 2.1600003
-0.7231316 0.77417618 2.1600001
-0.71689284 0.77587765 2.1600001
-0.54069448 0.77134037 2.1600001
-0.53502285 0.77512145 2.1600001
-0.52935123 0.77701199 2.1600001
-0.72344673 0.78520435 2.1600003
-0.71651471 0.78457415 2.1600001
-0.52367961 0.78268361 2.1600001
-0.51422691 0.78646469 2.1600001
-0.72218633 0.79402685 2.1600003
-0.71840525 0.79780793 2.1600001
-0.50414407 0.79402685 2.1600003
-0.72218633 0.80537009 2.1600003
-0.71840525 0.80158901 2.1600001
-0.50288367 0.80347955 2.1600001
-0.71840525 0.81482279 2.1600001
-0.50666475 0.81482279 2.1600001
-0.71399403 0.82427549 2.1600001
-0.70706201 0.82805657 2.1600001
-0.51044583 0.82049441 2.1600001
-0.71084309 0.83372819 2.1600001
-0.7055496 0.83637494 2.1600001
-0.69949985 0.83939981 2.1600001
-0.51422691 0.83183765 2.1600001
-0.71462417 0.84507143 2.1600001
-0.70706201 0.84507143 2.1600001
-0.71235555 0.85376799 2.1600001
-0.70706201 0.85830522 2.1600001
-0.71084309 0.8620863 2.1600001
-0.70706201 0.86586738 2.1600003
-0.51170623 0.86586738 2.1600003
-0.70328093 0.87532008 2.1600001
-0.69949985 0.87532008 2.1600001
-0.51233637 0.87532008 2.1600001
-0.70328093 0.8809917 2.1600001
-0.69571882 0.88477278 2.1600001
-0.68513173 0.88628525 2.1600001
-0.51422691 0.88477278 2.1600003
-0.68210691 0.89535981 2.1600001
-0.67492282 0.89800656 2.1600001
-0.6692512 0.8998971 2.1600001
-0.51422691 0.89611602 2.1600003
-0.68059444 0.90367818 2.1600001
-0.67492282 0.90556872 2.1600001
-0.6692512 0.90556872 2.1600001
-0.51296657 0.90619892 2.1600003
-0.50477421 0.90745926 2.1600001
-0.85435426 -0.28161344 2.174
-0.85435426 -0.27780786 2.174
-0.8524515 0.47950396 2.174
-0.85625708 0.48521236 2.174
-0.84674311 0.48330957 2.174
-0.83532631 0.48711514 2.174
-0.82390964 0.48711514 2.174
-0.81820124 0.48711514 2.174
-0.8524515 0.49472636 2.1740003
-0.84420604 0.49599487 2.174
-0.83570689 0.49396521 2.174
-0.82581234 0.49092072 2.1740003
-0.81439567 0.49282354 2.174
-0.80678445 0.49472633 2.174
-0.85625714 0.50614309 2.1740003
-0.84255707 0.505382 2.174
-0.83627772 0.5070945 2.174
-0.85625708 0.51565707 2.174
-0.84230328 0.51629132 2.1740003
-0.83532631 0.51565707 2.174
-0.86006266 0.52517104 2.174
-0.85625714 0.52517104 2.1740003
-0.82809573 0.52593219 2.174
-0.81439561 0.52897662 2.1740003
-0.86006266 0.53658777 2.174
-0.85625708 0.53468502 2.174
-0.83342355 0.5327822 2.174
-0.82708091 0.53405076 2.1740003
-0.81693268 0.53405076 2.1740003
-0.86006266 0.54419893 2.174
-0.85625714 0.54419893 2.1740003
-0.84864593 0.54610169 2.174
-0.82644665 0.54293048 2.174
-0.81820124 0.54039335 2.174
-0.85625708 0.55181015 2.174
-0.83596057 0.55307871 2.1740003
-0.82961798 0.55371296 2.174
-0.79156208 0.5594213 2.174
-0.79156208 0.56512964 2.174
-0.85625708 0.57464361 2.174
-0.81249285 0.57654643 2.174
-0.80488169 0.57844925 2.174
-0.76492298 0.57844925 2.174
-0.85625708 0.58225483 2.174
-0.78268242 0.58352339 2.1740003
-0.77633977 0.58225483 2.174
-0.76492298 0.5860604 2.1740003
-0.7611174 0.5974772 2.174
-0.75731182 0.60318553 2.174
-0.75731182 0.62221348 2.174
-0.75636041 0.65551239 2.174
-0.74970067 0.65836656 2.174
-0.755409 0.66597772 2.174
-0.74779791 0.66597772 2.174
-0.755409 0.67549175 2.174
-0.74779785 0.67549169 2.174
-0.755409 0.68690848 2.174
-0.74716365 0.68373716 2.1740003
-0.53658777 0.69642246 2.174
-0.54039335 0.71925598 2.174
-0.54039335 0.72496438 2.174
-0.54134476 0.73352689 2.174
-0.54229617 0.74589503 2.174
-0.55371296 0.75731182 2.174
-0.5454675 0.75604331 2.1740003
-0.72306156 0.76872861 2.174
-0.54229617 0.76587439 2.174
-0.72306156 0.77253419 2.174
-0.54039335 0.77253419 2.174
-0.53531927 0.77507126 2.1740003
-0.52517104 0.78395092 2.174
-0.51565707 0.78585374 2.174
-0.50868022 0.786488 2.1740003
-0.72306156 0.79727054 2.174
-0.51375425 0.79156208 2.174
-0.505382 0.79460663 2.174
-0.71925598 0.80297887 2.174
-0.50233752 0.80488169 2.174
-0.72306156 0.81249285 2.174
-0.5038597 0.81515676 2.174
-0.71449894 0.82581234 2.174
-0.51375425 0.82961798 2.174
-0.50766534 0.82657355 2.174
-0.51375425 0.83532631 2.174
-0.50994867 0.83342355 2.174
-0.71545035 0.84864593 2.174
-0.71354759 0.85435426 2.174
-0.51565707 0.85625708 2.174
-0.70783919 0.86767387 2.174
-0.51470566 0.86291683 2.174
-0.70498502 0.87528503 2.174
-0.50994867 0.87718785 2.174
-0.70022804 0.88289618 2.174
-0.69451964 0.884799 2.174
-0.68595707 0.88384759 2.174
-0.51375425 0.884799 2.174
-0.68310285 0.89431298 2.174
-0.51375425 0.89431304 2.1740003
-0.51375425 0.90572971 2.1740003
-0.50899732 0.90668112 2.174
-0.85754901 0.48619965 2.187
-0.83266473 0.48619965 2.187
-0.82500803 0.48619965 2.187
-0.85467774 0.49289927 2.187
-0.84734011 0.49130413 2.187
-0.83457893 0.49002799 2.187
-0.81926554 0.49194217 2.187
-0.8077805 0.49768469 2.187
-0.85563481 0.50725555 2.187
-0.85563481 0.51491225 2.187
-0.84989232 0.51491225 2.187
-0.85563487 0.52448308 2.1870003
-0.84606403 0.52639723 2.1870003
-0.83840728 0.52639723 2.187
-0.85563487 0.53596812 2.1870003
-0.84606391 0.53596812 2.187
-0.8371312 0.53724426 2.187
-0.85563481 0.54553902 2.187
-0.84606403 0.54553902 2.1870003
-0.83585501 0.54617709 2.187
-0.82309389 0.54745317 2.187
-0.85563481 0.55510986 2.187
-0.84715778 0.55456299 2.1870003
-0.83381319 0.55510992 2.187
-0.82462519 0.55434418 2.187
-0.8159157 0.55558842 2.187
-0.80522823 0.55766213 2.187
-0.86137736 0.56276655 2.187
-0.85754901 0.56659484 2.187
-0.82309389 0.5646807 2.187
-0.81467152 0.56506354 2.187
-0.80395222 0.5646807 2.1870003
-0.86137736 0.57807988 2.187
-0.85659188 0.57329446 2.187
-0.84989232 0.57042319 2.187
-0.82309389 0.57042319 2.187
-0.81489027 0.57315779 2.1870003
-0.8039521 0.57425147 2.187
-0.79629546 0.57616568 2.187
-0.78863883 0.57807988 2.187
-0.77460158 0.5768038 2.187
-0.76566875 0.57616568 2.187
-0.85754901 0.58382237 2.187
-0.80203795 0.58190823 2.187
-0.79342419 0.5847795 2.187
-0.78481048 0.58190823 2.187
-0.77523959 0.58190823 2.187
-0.76413745 0.58497089 2.187
-0.75801206 0.58190823 2.187
-0.86137736 0.59339327 2.187
-0.76439273 0.59594554 2.187
-0.7618404 0.60104996 2.187
-0.75801206 0.60679245 2.187
-0.75801206 0.61444914 2.187
-0.75801206 0.62402004 2.187
-0.75801206 0.63550514 2.187
-0.75609791 0.68527353 2.187
-0.53596812 0.69675857 2.187
-0.53852034 0.70441532 2.187
-0.53979647 0.71972859 2.187
-0.53979647 0.72547114 2.187
-0.53749943 0.73657334 2.187
-0.53673381 0.74499571 2.187
-0.54362482 0.75609791 2.187
-0.53979647 0.75418371 2.187
-0.54362482 0.76566875 2.187
-0.5388394 0.76566875 2.187
-0.53520244 0.77485675 2.187
-0.52524871 0.77562243 2.187
-0.51491225 0.77715379 2.187
-0.53213978 0.78098214 2.187
-0.52448308 0.78289628 2.1870003
-0.51491225 0.78289628 2.187
-0.50763834 0.78557616 2.187
-0.50342715 0.79438126 2.187
-0.72355694 0.80395216 2.187
-0.501513 0.80395222 2.187
-0.49768469 0.80395216 2.187
-0.72355694 0.81543726 2.187
-0.501513 0.8154372 2.187
-0.72355694 0.82309389 2.187
-0.71845245 0.8256461 2.187
-0.50278914 0.8256461 2.187
-0.50629842 0.835536 2.187
-0.52065474 0.84797812 2.187
-0.51452941 0.84682959 2.187
-0.50763839 0.84529829 2.187
-0.71207196 0.85754901 2.187
-0.52065474 0.85563481 2.187
-0.51491225 0.85563481 2.187
-0.5091697 0.85563481 2.187
-0.71302903 0.86520571 2.187
-0.70824361 0.86903399 2.187
-0.51299804 0.86520571 2.187
-0.70696753 0.87541455 2.187
-0.69675857 0.87286234 2.187
-0.51299804 0.87477648 2.187
-0.70186305 0.88179511 2.187
-0.69548243 0.8830713 2.187
-0.68910187 0.88434738 2.187
-0.51299804 0.88817573 2.187
-0.5091697 0.88817573 2.187
-0.68654966 0.89328021 2.187
-0.51299804 0.89583248 2.187
-0.51299804 0.90348911 2.187
-0.5091697 0.90540326 2.187
-0.49002799 0.90731746 2.187
-0.50725555 0.91305995 2.187
-0.85918576 -0.22539178 2.2010002
-0.85918581 -0.21575966 2.2010002
-0.85725933 -0.2042011 2.2010002
-0.8245101 0.48931208 2.2010002
-0.8630386 0.54710484 2.2010002
-0.80909872 0.55866337 2.2010002
-0.8630386 0.56444269 2.2010002
-0.85533297 0.56636918 2.2010002
-0.83606863 0.56636918 2.2010002
-0.8245101 0.56636912 2.2010002
-0.80909872 0.56251627 2.2010002
-0.79754013 0.56636912 2.2010002
-0.78405517 0.56636912 2.2010002
-0.77634948 0.56636912 2.2010002
-0.85725933 0.5740748 2.2010002
-0.83350009 0.57150626 2.2010002
-0.79561371 0.5740748 2.2010002
-0.78549999 0.57455641 2.2010002
-0.77442306 0.57343268 2.2010002
-0.76440567 0.57330424 2.2010002
-0.75901163 0.57792765 2.2010002
-0.85918581 0.5856334 2.2010002
-0.79754013 0.58178049 2.2010002
-0.78790802 0.58178049 2.2010002
-0.77057022 0.58178049 2.2010002
-0.76286447 0.58563334 2.2010002
-0.75901163 0.58178049 2.2010002
-0.76543307 0.59462333 2.2010002
-0.86496502 0.60104477 2.2010002
-0.76286447 0.60489762 2.2010002
-0.75772732 0.60618192 2.2010002
-0.75772732 0.61517191 2.2010002
-0.75708526 0.62416184 2.2010002
-0.75901163 0.63572043 2.2010002
-0.75901163 0.64535254 2.2010002
-0.75612199 0.65594786 2.2010002
-0.74552667 0.65691108 2.2010002
-0.73974741 0.6588375 2.2010002
-0.75515878 0.66269034 2.2010002
-0.53490418 0.70507181 2.2010002
-0.52784061 0.70507181 2.2010002
-0.54325199 0.71663028 2.2010002
-0.53939915 0.71277744 2.2010002
-0.53939915 0.72818881 2.2010002
-0.53785801 0.73666519 2.2010002
-0.53361988 0.74745309 2.2010002
-0.53499591 0.75625968 2.2010002
-0.52508861 0.75570929 2.2010002
-0.5355463 0.76479095 2.2010002
-0.52398777 0.76479095 2.2010002
-0.51242918 0.76671737 2.2010002
-0.53477573 0.77288193 2.2010002
-0.52350616 0.77394146 2.2010002
-0.51435566 0.77442306 2.2010002
-0.50664997 0.77442306 2.2010002
-0.51242918 0.78212875 2.2010002
-0.50472355 0.7859816 2.2010002
-0.50215495 0.79497159 2.2010002
-0.50087065 0.80331945 2.2010002
-0.49547663 0.80601645 2.2010002
-0.72305173 0.81552017 2.2010002
-0.50087065 0.81487799 2.2010002
-0.49701777 0.81487799 2.2010002
-0.72202426 0.82373953 2.2010002
-0.71663028 0.82836294 2.2010002
-0.50087065 0.8245101 2.2010002
-0.49701777 0.82258368 2.2010002
-0.50241178 0.8368392 2.2010002
-0.50472349 0.8457008 2.2010002
-0.71470386 0.85918576 2.2010002
-0.70892459 0.85918576 2.2010002
-0.50626463 0.85610354 2.2010002
-0.71277744 0.86496502 2.2010002
-0.70507181 0.86496508 2.2010002
-0.51242918 0.86689144 2.2010002
-0.50857633 0.86496502 2.2010002
-0.71277744 0.87074435 2.2010002
-0.70555341 0.87411553 2.2010002
-0.69736612 0.87459725 2.2010002
-0.51242918 0.87459725 2.2010002
-0.50761312 0.8755604 2.2010002
-0.70314533 0.88230288 2.2010002
-0.69543958 0.8842293 2.2010002
-0.51242918 0.8842293 2.2010002
-0.50664991 0.8842293 2.2010002
-0.51242918 0.89386141 2.2010002
-0.50582433 0.8944118 2.2010002
-0.51242918 0.90349358 2.2010002
-0.50582433 0.90486962 2.2010002
-0.49316493 0.90927285 2.2010002
-0.48931208 0.90927285 2.2010002
-0.50472355 0.91505212 2.2010002
-0.49701777 0.91312569 2.2010002
-0.50472349 0.92083138 2.2010002
-0.8568961 -0.31018862 2.2150002
-0.8568961 -0.25202826 2.2150002
-0.8568961 -0.24427354 2.2150002
-0.8568961 -0.22100939 2.2150002
-0.8549574 -0.21519336 2.2150002
-0.85456961 -0.20549996 2.2150002
-0.84759045 -0.20472448 2.2150002
-0.8549574 -0.19580656 2.2150002
-0.84720266 -0.19774525 2.2150002
-0.85495734 -0.18611318 2.2150002
-0.84914136 -0.18611318 2.2150002
-0.8530187 0.56997162 2.2150002
-0.84914136 0.56997162 2.2150002
-0.77353287 0.56997162 2.2150002
-0.76771683 0.56803292 2.2150002
-0.8568961 0.57384896 2.2150002
-0.84720266 0.57384896 2.2150002
-0.79485834 0.57384896 2.2150002
-0.77547157 0.57384896 2.2150002
-0.76577818 0.60292912 2.2150002
-0.75996214 0.60486782 2.2150002
-0.75996214 0.6164999 2.2150002
-0.7580235 0.63588667 2.2150002
-0.75737727 0.65591967 2.2150002
-0.74833006 0.6552735 2.2150002
-0.52602828 0.70826405 2.2150002
-0.53507537 0.7160188 2.2150002
-0.52473581 0.71472633 2.2150002
-0.51956594 0.71343386 2.2150002
-0.54283011 0.72506595 2.2150002
-0.53895271 0.72894329 2.2150002
-0.53895271 0.73475933 2.2150002
-0.53119802 0.7522074 2.2150002
-0.52473581 0.7560848 2.2150002
-0.51646411 0.76616591 2.2150002
-0.5156886 0.77159423 2.2150002
-0.50328106 0.77624702 2.2150002
-0.4963018 0.77934891 2.2150002
-0.50211787 0.78516495 2.2150002
-0.4963018 0.78710365 2.2150002
-0.50017917 0.7948584 2.2150002
-0.4963018 0.79291964 2.2150002
-0.50017917 0.80261308 2.2150002
-0.4963018 0.80455172 2.2150002
-0.73282063 0.81036776 2.2150002
-0.72700459 0.81424516 2.2150002
-0.4937169 0.81424516 2.2150002
-0.72118855 0.82587719 2.2150002
-0.49630183 0.82587719 2.2150002
-0.50017917 0.83557057 2.2150002
-0.4963018 0.83363193 2.2150002
-0.50114852 0.84623331 2.2150002
-0.50211781 0.8549574 2.2150002
-0.50405651 0.86465085 2.2150002
-0.4963018 0.86077344 2.2150002
-0.50793386 0.87434423 2.2150002
-0.5050258 0.88306826 2.2150002
-0.50308716 0.89663899 2.2150002
-0.50017917 0.90536308 2.2150002
-0.4963018 0.90730172 2.2150002
-0.50211787 0.91311777 2.2150002
-0.4963018 0.91117907 2.2150002
-0.85879529 -0.24397594 2.23
-0.85723382 -0.23343618 2.23
-0.85749412 -0.22380726 2.23
-0.8529399 -0.21567474 2.23
-0.84708446 -0.2068916 2.23
-0.85359049 -0.19387954 2.23
-0.85489172 -0.18346991 2.23
-0.76120496 0.60896397 2.23
-0.76120496 0.62653023 2.23
-0.76120496 0.63238561 2.23
-0.54260248 0.72802418 2.23
-0.53479528 0.72509646 2.23
-0.52503622 0.72412062 2.23
-0.51918077 0.7221688 2.23
-0.53609651 0.73648208 2.23
-0.53739774 0.74298805 2.23
-0.53479528 0.7533977 2.23
-0.52698803 0.75730133 2.23
-0.5230844 0.76315677 2.23
-0.51605791 0.76588935 2.23
-0.51137358 0.77291578 2.23
-0.50551814 0.77681941 2.23
-0.49966273 0.77681941 2.23
-0.49771091 0.78560257 2.23
-0.49445793 0.79503632 2.23
-0.4957591 0.80492544 2.23
-0.48795187 0.80609649 2.23
-0.49283141 0.81487966 2.23
-0.48600006 0.81390375 2.23
-0.49380732 0.82561457 2.23
-0.4944579 0.83277124 2.23
-0.49966273 0.84513265 2.23
-0.49966273 0.85489172 2.23
-0.49966273 0.86269891 2.23
-0.50454223 0.87538564 2.23
-0.49966273 0.87440985 2.23
-0.50486755 0.88351822 2.23
-0.49966273 0.8841688 2.23
-0.50356638 0.89392793 2.23
-0.49966273 0.89392781 2.23
-0.50356632 0.90173507 2.23
-0.49868682 0.9066146 2.23
-0.4957591 0.91539776 2.23
-0.85633069 -0.28282481 2.2440002
-0.85633069 -0.27496856 2.2440002
-0.86025882 -0.26514828 2.2440002
-0.85436666 -0.26318422 2.2440002
-0.86124086 -0.25434592 2.2440002
-0.85436672 -0.255328 2.2440004
-0.8484745 -0.25925609 2.2440002
-0.86025882 -0.24550766 2.2440002
-0.85436666 -0.24550766 2.2440002
-0.8484745 -0.24747172 2.2440002
-0.86025882 -0.23961547 2.2440002
-0.85436666 -0.23568736 2.2440004
-0.8484745 -0.2337233 2.2440002
-0.86025882 -0.22783111 2.2440002
-0.85436666 -0.22586705 2.2440002
-0.8484745 -0.22390299 2.2440002
-0.85338467 -0.21604674 2.2440002
-0.8484745 -0.21604674 2.2440002
-0.85240263 -0.20229831 2.2440002
-0.8484745 -0.20426238 2.2440002
-0.85371202 -0.19378738 2.2440002
-0.8484745 -0.19444206 2.2440002
-0.86025882 -0.18069364 2.2440002
-0.85502136 -0.18724051 2.2440002
-0.86025882 -0.17480145 2.2440002
-0.85633069 -0.17480145 2.2440002
-0.76205575 0.65796053 2.2440002
-0.75812763 0.65599644 2.2440002
-0.51458406 0.72670269 2.2440002
-0.50672781 0.72670269 2.2440002
-0.542081 0.73455894 2.2440002
-0.53265351 0.73534459 2.2440002
-0.52538639 0.73357689 2.2440002
-0.51458406 0.73063082 2.2440002
-0.50476372 0.73063082 2.2440002
-0.53291535 0.74372458 2.2440002
-0.52636844 0.74241519 2.2440002
-0.53501034 0.75341386 2.2440002
-0.52440441 0.76205575 2.2440002
-0.51458406 0.76794791 2.2440002
-0.50672781 0.769912 2.2440002
-0.51065594 0.77580416 2.2440002
-0.50541842 0.77645892 2.2440002
-0.49887156 0.77776825 2.2440002
-0.49494344 0.78562456 2.2440004
-0.49297938 0.79544479 2.2440002
-0.48708719 0.79740888 2.2440002
-0.49297935 0.80526513 2.2440002
-0.48610514 0.80624717 2.2440002
-0.48446846 0.81443071 2.2440002
-0.49101532 0.82686985 2.2440002
-0.48577783 0.82490575 2.2440002
-0.49101532 0.8347261 2.2440002
-0.48708719 0.8347261 2.2440002
-0.49572906 0.84376079 2.2440002
-0.49887156 0.85436666 2.2440002
-0.49887156 0.86418694 2.2440002
-0.49887156 0.87597132 2.2440002
-0.49690747 0.8857916 2.2440002
-0.49690747 0.89561194 2.2440004
-0.49690747 0.90543222 2.2440002
-0.49887156 0.91132444 2.2440002
-0.85810041 -0.29460132 2.2590001
-0.85711181 -0.28372675 2.2590001
-0.86205482 -0.27680659 2.2590001
-0.85612321 -0.27482939 2.2590001
-0.86205482 -0.26889783 2.2590001
-0.85282791 -0.26626158 2.2590001
-0.8462373 -0.26098907 2.2590001
-0.85216886 -0.25505751 2.2590001
-0.8462373 -0.25308031 2.2590001
-0.85177344 -0.24438067 2.2590001
-0.84465551 -0.24596243 2.2590001
-0.85019165 -0.2352856 2.2590001
-0.8442601 -0.2352856 2.2590001
-0.83832854 -0.2333084 2.2590001
-0.85118026 -0.22638823 2.2590001
-0.8442601 -0.22539964 2.2590001
-0.85019165 -0.21551371 2.2590001
-0.8442601 -0.21551371 2.2590001
-0.83832854 -0.21353652 2.2590001
-0.85019171 -0.20562777 2.2590003
-0.8442601 -0.20562774 2.2590001
-0.85019165 -0.1957418 2.2590001
-0.8442601 -0.1957418 2.2590001
-0.86205482 -0.18190147 2.2590001
-0.8536517 -0.18536156 2.2590001
-0.84465551 -0.18664673 2.2590001
-0.86205482 -0.17003833 2.2590001
-0.85651869 -0.17478359 2.2590001
-0.52395535 0.73946905 2.2590001
-0.51406932 0.73946905 2.2590003
-0.50616062 0.73946905 2.2590001
-0.52395535 0.74540061 2.2590001
-0.51604652 0.74737781 2.2590001
-0.53384125 0.75528657 2.2590003
-0.52706242 0.7547217 2.2590001
-0.51802373 0.75924093 2.2590001
-0.52494395 0.76418388 2.2590001
-0.51670563 0.76583159 2.2590003
-0.51209217 0.77110404 2.2590001
-0.50457889 0.77584934 2.2590001
-0.49627465 0.7790128 2.2590001
-0.49350664 0.78454894 2.2590001
-0.48507059 0.78560346 2.2590003
-0.47847995 0.78692156 2.2590001
-0.49034309 0.79483032 2.2590003
-0.48441154 0.79483032 2.2590001
-0.47847995 0.79285312 2.2590001
-0.48441154 0.80471629 2.2590001
-0.47847995 0.80471629 2.2590001
-0.48342294 0.81361365 2.2590001
-0.47847995 0.81262505 2.2590001
-0.48243433 0.82448816 2.2590001
-0.48441154 0.83437413 2.2590001
-0.49034309 0.8462373 2.2590001
-0.48638871 0.8442601 2.2590001
-0.4942975 0.85414606 2.2590001
-0.48638871 0.85216886 2.2590001
-0.4966701 0.86521834 2.2590001
-0.4969337 0.87655419 2.2590003
-0.49587923 0.88499022 2.2590001
-0.4923203 0.89566702 2.2590001
-0.4923203 0.90555298 2.2590001
-0.49429747 0.91543889 2.2590001
-0.49726325 0.92433631 2.2590001
-0.85981768 -0.29456717 2.2740002
-0.85782737 -0.28461558 2.2740002
-0.85451019 -0.27466398 2.2740002
-0.85185641 -0.26670271 2.2740002
-0.84787577 -0.26272207 2.2740002
-0.85185641 -0.25874144 2.2740002
-0.84588546 -0.25277048 2.2740002
-0.845222 -0.24414578 2.2740002
-0.83858764 -0.24414578 2.2740002
-0.84389514 -0.23485762 2.2740002
-0.83792418 -0.2348576 2.2740002
-0.84389514 -0.22490603 2.2740002
-0.8399145 -0.22490603 2.2740002
-0.84389514 -0.21495442 2.2740002
-0.83832228 -0.2141583 2.2740002
-0.84389514 -0.20500283 2.2740002
-0.83792418 -0.20500283 2.2740002
-0.84389514 -0.19505124 2.2740002
-0.83792418 -0.19505124 2.2740002
-0.845222 -0.1844362 2.2740002
-0.8399145 -0.18509965 2.2740002
-0.85384673 -0.17713837 2.2740002
-0.84787577 -0.17912869 2.2740002
-0.8399145 -0.17912869 2.2740002
-0.76295555 0.66742027 2.2740002
-0.52146351 0.74835986 2.2740002
-0.51748288 0.74835986 2.2740002
-0.52146351 0.75632113 2.2740002
-0.51549256 0.75433081 2.2740002
-0.52411729 0.76162863 2.2740002
-0.51748288 0.76428241 2.2740002
-0.51350224 0.77224368 2.2740002
-0.50554097 0.77489746 2.2740002
-0.49757969 0.77622432 2.2740002
-0.50156033 0.78020495 2.2740002
-0.49558938 0.78219527 2.2740002
-0.48961842 0.78219527 2.2740002
-0.48165715 0.80408877 2.2740002
-0.47767651 0.80010813 2.2740002
-0.47767651 0.81205004 2.2740002
-0.48165715 0.82399195 2.2740002
-0.48165715 0.8399145 2.2740002
-0.48563778 0.84787577 2.2740002
-0.48563778 0.85583705 2.2740002
-0.49359906 0.86578864 2.2740002
-0.48961842 0.86578864 2.2740002
-0.49519131 0.87653637 2.2740002
-0.48961842 0.87374991 2.2740002
-0.49359906 0.88569182 2.2740002
-0.49359906 0.89365315 2.2740002
-0.48961842 0.89962411 2.2740002
-0.48961842 0.90559506 2.2740002
-0.48961842 0.91554666 2.2740002
-0.49359906 0.92350793 2.2740002
-0.86148238 -0.29450679 2.289
-0.86148238 -0.28849643 2.289
-0.85747546 -0.28048262 2.289
-0.85747546 -0.27647573 2.289
-0.8534686 -0.26445505 2.289
-0.84745824 -0.2544378 2.289
-0.84144789 -0.24842748 2.289
-0.83744103 -0.24241713 2.289
-0.83744103 -0.23440334 2.289
-0.84144795 -0.22438613 2.289
-0.83744103 -0.21236542 2.289
-0.83744109 -0.20435163 2.289
-0.83744103 -0.19633785 2.289
-0.84144789 -0.1863206 2.289
-0.51688945 0.76531696 2.289
-0.51488602 0.77333069 2.289
-0.50486875 0.77733767 2.289
-0.49551934 0.78268015 2.289
-0.48884118 0.78935826 2.289
-0.48884118 0.79336518 2.289
-0.48082736 0.80538583 2.289
-0.48082736 0.81339961 2.289
-0.48082736 0.82341689 2.289
-0.48483425 0.83543754 2.289
-0.48283082 0.84745824 2.289
-0.48483425 0.85547203 2.289
-0.48583597 0.86649096 2.289
-0.48750553 0.87483871 2.289
-0.49284807 0.88752723 2.289
-0.48683771 0.8855238 2.289
-0.49284807 0.89554095 2.289
-0.49284807 0.90155131 2.289
-0.48884118 0.90756166 2.289
-0.48884118 0.91557544 2.289
-0.85906148 -0.27425438 2.3040001
-0.85502833 -0.26215491 2.3040001
-0.85099518 -0.25812176 2.3040001
-0.84696203 -0.25408861 2.3040001
-0.83889574 -0.24198915 2.3040001
-0.84292889 -0.22585654 2.3040004
-0.84292889 -0.21779023 2.3040001
-0.83889574 -0.20569077 2.3040001
-0.84292889 -0.19359131 2.3040001
-0.84393716 -0.18451673 2.3040001
-0.52027667 0.75823265 2.3040001
-0.51355475 0.75688827 2.3040004
-0.50683284 0.75554389 2.3040004
-0.51422691 0.76428235 2.3040001
-0.50817722 0.76428235 2.3040001
-0.51382363 0.77355874 2.3040001
-0.50529647 0.7749415 2.3040001
-0.50011092 0.7824316 2.3040001
-0.49338898 0.78377599 2.3040004
-0.48599488 0.78444815 2.3040001
-0.47994515 0.7824316 2.3040001
-0.4920446 0.7904979 2.3040001
-0.48599488 0.79453105 2.3040001
-0.4839783 0.80259734 2.3040001
-0.47994515 0.80461395 2.3040001
-0.47893685 0.81368852 2.3040001
-0.47994515 0.82477963 2.3040001
-0.4839783 0.83486259 2.3040001
-0.48532268 0.84561765 2.3040004
-0.47994515 0.84494543 2.3040001
-0.4839783 0.85704494 2.3040001
-0.47994515 0.85502833 2.3040004
-0.4839783 0.86511123 2.3040001
-0.47792858 0.86511123 2.3040001
-0.48397833 0.87519407 2.3040004
-0.47792861 0.87519407 2.3040001
-0.48532268 0.88460481 2.3040004
-0.4920446 0.89939302 2.3040001
-0.48498657 0.89636821 2.3040001
-0.4920446 0.90544271 2.3040001
-0.48801145 0.90544271 2.3040001
-0.48801145 0.91552562 2.3040004
-0.4920446 0.92762506 2.3040001
-0.82644618 -0.88736355 2.3200002
-0.86096603 -0.27412835 2.3200002
-0.86096603 -0.2680366 2.3200002
-0.85690486 -0.26397544 2.3200002
-0.8528437 -0.25991428 2.3200002
-0.84878254 -0.25179195 2.3200002
-0.84472144 -0.24773079 2.3200002
-0.8447215 -0.23554733 2.3200002
-0.84472144 -0.22539441 2.3200002
-0.8447215 -0.21524152 2.3200002
-0.84472144 -0.20305803 2.3200002
-0.8447215 -0.19493572 2.3200002
-0.84472144 -0.1847828 2.3200002
-0.51373684 0.75537586 2.3200002
-0.50493765 0.7567296 2.3200002
-0.49952275 0.7513147 2.3200002
-0.50561452 0.76552874 2.3200002
-0.49749216 0.76755935 2.3200002
-0.48530871 0.76755935 2.3200002
-0.50459921 0.77466637 2.3200002
-0.49662191 0.77626193 2.3200002
-0.48530871 0.77568167 2.3200002
-0.47921699 0.77568167 2.3200002
-0.49546158 0.78380406 2.3200002
-0.48530871 0.783804 2.3200002
-0.47786325 0.78515768 2.3200002
-0.48327813 0.79395688 2.3200002
-0.47921696 0.79395688 2.3200002
-0.48327813 0.8020792 2.3200002
-0.47921696 0.81223214 2.3200002
-0.47921699 0.82441562 2.3200002
-0.48327813 0.83659911 2.3200002
-0.47921696 0.8345685 2.3200002
-0.48733926 0.84472144 2.3200002
-0.47921699 0.84472144 2.3200002
-0.47921696 0.85487425 2.3200002
-0.47678027 0.86421502 2.3200002
-0.47312522 0.87518013 2.3200002
-0.48327813 0.88939416 2.3200002
-0.47399551 0.88591325 2.3200002
-0.48327813 0.89548588 2.3200002
-0.4751558 0.89548588 2.3200002
-0.48429343 0.90665412 2.3200002
-0.47718638 0.90157765 2.3200002
-0.48733926 0.91579175 2.3200002
-0.48733926 0.92391407 2.3200002
-0.493431 0.93406695 2.3200002
-0.86653256 -0.90331936 2.335
-0.83587694 -0.90331936 2.335
-0.82647592 -0.90495437 2.335
-0.84200805 -0.89514446 2.335
-0.83628571 -0.89514446 2.335
-0.82514745 -0.89565539 2.335
-0.81748354 -0.8931008 2.335
-0.83587694 -0.88492596 2.335
-0.82565844 -0.88492596 2.335
-0.82770211 -0.87879485 2.335
-0.85835773 -0.47005305 2.335
-0.85835773 -0.46596563 2.335
-0.86653256 -0.28407556 2.335
-0.86244518 -0.27590072 2.335
-0.86244518 -0.26976958 2.335
-0.85699528 -0.26568216 2.335
-0.85427034 -0.25750732 2.335
-0.8460955 -0.21458943 2.335
-0.8460955 -0.20437089 2.335
-0.8460955 -0.19415236 2.335
-0.8460955 -0.18597752 2.335
-0.8460955 -0.17984639 2.335
-0.51092726 0.7561723 2.335
-0.50683981 0.7561723 2.335
-0.49866498 0.75412858 2.335
-0.50275242 0.76639086 2.335
-0.49457759 0.76843464 2.335
-0.48640272 0.76843458 2.335
-0.49457756 0.7745657 2.335
-0.4823153 0.77252197 2.335
-0.47686541 0.77524698 2.335
-0.49457756 0.78069681 2.335
-0.47618419 0.7847842 2.335
-0.47618419 0.79500276 2.335
-0.4823153 0.80726504 2.335
-0.47720602 0.80419946 2.335
-0.4823153 0.81339616 2.335
-0.47822788 0.81543982 2.335
-0.47686541 0.82838339 2.335
-0.47495794 0.83628571 2.335
-0.48640272 0.8460955 2.335
-0.47618419 0.84405178 2.335
-0.48640272 0.85018289 2.335
-0.47686541 0.85699528 2.335
-0.47618419 0.86448884 2.335
-0.47209674 0.8747074 2.335
-0.47005305 0.88492596 2.335
-0.47005305 0.89514446 2.335
-0.47141552 0.90604436 2.335
-0.48333716 0.91660345 2.335
-0.47822788 0.9114942 2.335
-0.48640272 0.92580014 2.335
-0.49049014 0.93601871 2.335
-0.49457756 0.94010609 2.335
-0.87247032 -0.98358679 2.3510001
-0.80250806 -0.98358679 2.3510001
-0.79633492 -0.98358679 2.3510001
-0.83131605 -0.92185545 2.3510001
-0.82514292 -0.92185545 2.3510001
-0.81691206 -0.92391312 2.3510001
-0.84366232 -0.91362458 2.3510001
-0.83646029 -0.91671115 2.3510001
-0.82514298 -0.91568226 2.3510001
-0.81759799 -0.91499639 2.3510003
-0.86492538 -0.90402192 2.3510001
-0.85292202 -0.90436488 2.3510001
-0.84777772 -0.90950912 2.3510001
-0.82308519 -0.90745139 2.3510001
-0.81896985 -0.90539378 2.3510003
-0.87452805 -0.89510512 2.3510001
-0.85189319 -0.89716285 2.3510001
-0.84777772 -0.89304745 2.3510001
-0.82308519 -0.89304745 2.3510001
-0.81896979 -0.89510512 2.3510001
-0.83543152 -0.88207304 2.3510003
-0.82473147 -0.88399357 2.3510001
-0.81896979 -0.88893199 2.3510001
-0.86286771 -0.27573356 2.3510003
-0.86012405 -0.2675027 2.3510001
-0.85600859 -0.25721413 2.3510001
-0.85189319 -0.24486785 2.3510001
-0.85189319 -0.23457929 2.3510003
-0.85189319 -0.22429071 2.3510001
-0.85189319 -0.2057713 2.3510001
-0.49796656 0.75518066 2.3510001
-0.48973569 0.75723839 2.3510001
-0.50413966 0.76752698 2.3510001
-0.49590886 0.76958466 2.3510001
-0.48870686 0.76649809 2.3510001
-0.48356253 0.77370006 2.3510001
-0.47738943 0.77781552 2.3510001
-0.47464582 0.78467458 2.3510003
-0.47327399 0.79427719 2.3510003
-0.46915859 0.79427719 2.3510003
-0.47327399 0.80456579 2.3510001
-0.47738943 0.81485432 2.3510003
-0.48150483 0.82720065 2.3510001
-0.47738943 0.82514292 2.3510001
-0.47464582 0.83543152 2.3510003
-0.46778676 0.83817518 2.3510003
-0.47327399 0.84777772 2.3510001
-0.46710083 0.84571999 2.3510001
-0.48150483 0.85600859 2.3510001
-0.47464582 0.85463685 2.3510003
-0.46915856 0.85189319 2.3510001
-0.47492018 0.86423951 2.3510001
-0.46778676 0.86286771 2.3510003
-0.47327399 0.87452805 2.3510001
-0.46778676 0.87384212 2.3510003
-0.46915859 0.88481665 2.3510003
-0.46915856 0.89510512 2.3510001
-0.46915856 0.90539372 2.3510001
-0.47738943 0.91773999 2.3510001
-0.46710086 0.91362458 2.3510001
-0.45269686 0.91568232 2.3510001
-0.44858143 0.91362458 2.3510001
-0.48150483 0.92185545 2.3510001
-0.45269686 0.92185545 2.3510001
-0.48767799 0.93420172 2.3510001
-0.49385113 0.94654799 2.3510001
-0.5103128 0.95889425 2.3510001
-0.49796656 0.95066339 2.3510001
-0.87219274 -0.99028063 2.3670001
-0.82039988 -0.99028063 2.3670001
-0.81418467 -0.99028063 2.3670001
-0.79346752 -0.99028063 2.3670001
-0.78725237 -0.99028063 2.3670001
-0.87509316 -0.98447984 2.3670003
-0.81418467 -0.98613721 2.3670001
-0.80589783 -0.98613721 2.3670001
-0.79968268 -0.98613721 2.3670001
-0.87426448 -0.95506144 2.3670001
-0.82247162 -0.94470286 2.3670003
-0.82454336 -0.93503493 2.3670001
-0.8162564 -0.93227255 2.3670001
-0.84111702 -0.92812914 2.3670001
-0.82039988 -0.92398572 2.3670001
-0.8162564 -0.92605746 2.3670001
-0.85561907 -0.91984224 2.3670001
-0.8162564 -0.9177705 2.3670001
-0.86390591 -0.90326852 2.3670001
-0.88255137 -0.89083821 2.3670001
-0.87675059 -0.89581031 2.3670003
-0.85561907 -0.89705336 2.3670001
-0.84940392 -0.89083821 2.3670001
-0.82143569 -0.89394581 2.3670001
-0.88255137 -0.88255137 2.3670001
-0.83697361 -0.88255137 2.3670001
-0.82454324 -0.88358724 2.3670001
-0.82454324 -0.87633628 2.3670003
-0.8162564 -0.87633622 2.3670001
-0.85769075 -0.25274944 2.3670001
-0.85354733 -0.23203228 2.3670001
-0.85354733 -0.22374542 2.3670001
-0.85354733 -0.21545854 2.3670001
-0.85354733 -0.20509997 2.3670001
-0.85354733 -0.1947414 2.3670001
-0.85354733 -0.1843828 2.3670001
-0.50135547 0.76653522 2.3670001
-0.49721205 0.76446354 2.3670001
-0.48685348 0.76446354 2.3670001
-0.50342715 0.77067864 2.3670001
-0.49721205 0.77067864 2.3670001
-0.48478174 0.77378619 2.3670001
-0.47442317 0.78518069 2.3670001
-0.47235143 0.79139584 2.3670001
-0.46820801 0.797611 2.3670001
-0.43298882 0.79553926 2.3670001
-0.47235143 0.80796957 2.3670001
-0.46820801 0.80589783 2.3670001
-0.47373259 0.8148753 2.3670001
-0.46820801 0.81211299 2.3670001
-0.45163426 0.81211299 2.3670001
-0.47442314 0.82454336 2.3670003
-0.46820801 0.82661498 2.3670001
-0.47442317 0.83490187 2.3670001
-0.46820801 0.83490193 2.3670001
-0.46510044 0.84422463 2.3670001
-0.46544573 0.85630965 2.3670001
-0.47235143 0.86183417 2.3670001
-0.46613628 0.86390591 2.3670001
-0.45992112 0.86597764 2.3670001
-0.47235143 0.87426448 2.3670001
-0.46510044 0.87426448 2.3670001
-0.45888525 0.87530035 2.3670001
-0.46613628 0.88462311 2.3670001
-0.45784938 0.88462311 2.3670001
-0.46613631 0.89498174 2.3670003
-0.45784941 0.89083821 2.3670001
-0.46613631 0.90534025 2.3670001
-0.47235143 0.91155541 2.3670001
-0.46572194 0.9148702 2.3670003
-0.45681354 0.91673464 2.3670001
-0.44749084 0.91569883 2.3670001
-0.4806383 0.92812914 2.3670001
-0.47511372 0.92536688 2.3670001
-0.46544573 0.92536688 2.3670001
-0.45992112 0.92605746 2.3670001
-0.48478174 0.93434429 2.3670001
-0.49306861 0.94884628 2.3670001
-0.48892516 0.94055945 2.3670001
-0.50757062 0.96127659 2.3670001
-0.87219715 -0.99530637 2.3840001
-0.86663294 -0.9960019 2.3840003
-0.85550445 -0.99739301 2.3840003
-0.84507143 -0.99739295 2.3840001
-0.83380377 -0.99572372 2.3840001
-0.82629204 -0.99321973 2.3840001
-0.8012529 -0.99321973 2.3840001
-0.7949931 -0.99321973 2.3840001
-0.78539479 -0.99572366 2.3840001
-0.87532711 -0.98591667 2.3840001
-0.83046526 -0.98904657 2.3840001
-0.8242054 -0.98487341 2.3840001
-0.81627637 -0.98570806 2.3840001
-0.80626076 -0.98737729 2.3840001
-0.79568863 -0.98765552 2.3840003
-0.7887333 -0.98904657 2.3840001
-0.83046526 -0.97235376 2.3840001
-0.8242054 -0.97444034 2.3840001
-0.81794566 -0.97652698 2.3840001
-0.83046526 -0.96609402 2.3840001
-0.8242054 -0.96609402 2.3840001
-0.87428379 -0.955661 2.3840001
-0.835334 -0.95705211 2.3840001
-0.8231622 -0.95670432 2.3840001
-0.81794566 -0.95566106 2.3840003
-0.88054353 -0.94731462 2.3840001
-0.83463842 -0.94522804 2.3840001
-0.82211888 -0.94522804 2.3840001
-0.81794566 -0.94522804 2.3840001
-0.86663294 -0.93201292 2.3840003
-0.85759103 -0.93062186 2.3840001
-0.83881164 -0.93896824 2.3840001
-0.81794566 -0.93479508 2.3840003
-0.82629204 -0.92227548 2.3840001
-0.81794566 -0.92436206 2.3840001
-0.82420546 -0.91601563 2.3840001
-0.8231622 -0.90662605 2.3840001
-0.88054353 -0.89514971 2.3840001
-0.87637037 -0.89723635 2.3840001
-0.85133123 -0.89306313 2.3840001
-0.82350993 -0.89445418 2.3840003
-0.84437597 -0.88471675 2.3840003
-0.83881164 -0.88471675 2.3840003
-0.82211888 -0.88888991 2.3840001
-0.8169024 -0.88367343 2.3840001
-0.8429848 -0.87637037 2.3840001
-0.83380377 -0.87470114 2.3840001
-0.82420546 -0.87428379 2.3840001
-0.81794566 -0.87428379 2.3840001
-0.83185637 -0.86663294 2.3840003
-0.82490098 -0.86524189 2.3840003
-0.82629204 -0.85967761 2.3840001
-0.85967761 -0.24413174 2.3840001
-0.85967761 -0.23787196 2.3840001
-0.85967761 -0.22952557 2.3840001
-0.85967761 -0.217006 2.3840001
-0.85550439 -0.18362045 2.3840001
-0.85550439 -0.17944726 2.3840001
-0.76647633 0.68162143 2.3840003
-0.50078309 0.76369417 2.3840001
-0.4840903 0.76786739 2.3840001
-0.4840903 0.77412713 2.3840001
-0.4840903 0.78038692 2.3840001
-0.47741318 0.7837255 2.3840001
-0.47157073 0.7949931 2.3840001
-0.46739751 0.7949931 2.3840001
-0.44235837 0.79707968 2.3840001
-0.4653109 0.80542612 2.3840001
-0.4555735 0.80542612 2.3840001
-0.44514048 0.80264395 2.3840003
-0.4653109 0.81585908 2.3840001
-0.45766008 0.81516355 2.3840003
-0.47157073 0.82420546 2.3840001
-0.46739751 0.82420546 2.3840001
-0.45696455 0.82211888 2.3840001
-0.46739754 0.83463848 2.3840003
-0.46739751 0.8429848 2.3840001
-0.45905113 0.88054353 2.3840001
-0.46322435 0.90558279 2.3840003
-0.45696455 0.90662599 2.3840001
-0.46322432 0.91601568 2.3840001
-0.45487794 0.91643298 2.3840001
-0.44653156 0.91601568 2.3840001
-0.4840903 0.93896824 2.3840001
-0.47490931 0.93729895 2.3840001
-0.46739751 0.93896824 2.3840001
-0.48617691 0.94522804 2.3840001
-0.47991711 0.94314146 2.3840001
-0.49452329 0.95566106 2.3840001
-0.50078309 0.96400738 2.3840001
-0.521649 0.97652698 2.3840001
-0.51747584 0.97652698 2.3840001
-0.50912946 0.97652698 2.3840001
-0.52269232 0.98487335 2.3840001
-0.51747584 0.98070019 2.3840001
-0.50078309 0.98695993 2.3840001
-0.521649 0.99530637 2.3840001
-0.51747584 0.99321973 2.3840001
-0.50078309 0.99321973 2.3840001
-0.521649 1.0015662 2.3840001
-0.78142327 -1.0040869 2.4000001
-0.77512145 -1.0040869 2.4000001
-0.8752501 -0.99288368 2.4000001
-0.86712772 -0.99736494 2.4000001
-0.85494423 -0.99988568 2.4000001
-0.84360105 -0.99652475 2.4000001
-0.83603889 -0.99148327 2.4000001
-0.80663043 -0.99148327 2.4000001
-0.79612744 -0.99148327 2.4000001
-0.78509933 -0.99515933 2.3999999
-0.7755416 -0.99568456 2.4000001
-0.76461846 -0.99988568 2.4000001
-0.84164047 -0.98448128 2.4000001
-0.83603889 -0.98518145 2.4000001
-0.81783366 -0.98588169 2.4000001
-0.7856245 -0.98728216 2.4000001
-0.77722204 -0.98518145 2.4000001
-0.84391612 -0.97520363 2.3999999
-0.82343525 -0.97467852 2.4000001
-0.77302086 -0.97887969 2.4000001
-0.84864247 -0.96417546 2.4000001
-0.84444129 -0.95577312 2.4000001
-0.85704488 -0.94106889 2.4000001
-0.84654188 -0.94737065 2.4000001
-0.81923407 -0.94527006 2.4000001
-0.81923407 -0.93476707 2.4000001
-0.82343525 -0.92216349 2.4000001
-0.81923407 -0.92636466 2.4000001
-0.82343525 -0.91376108 2.4000001
-0.86754787 -0.90325809 2.4000001
-0.82343525 -0.90535867 2.4000001
-0.86124605 -0.89905685 2.4000001
-0.85564446 -0.89205492 2.4000001
-0.82343525 -0.89905685 2.4000001
-0.81923407 -0.89065444 2.4000001
-0.89065444 -0.8822521 2.4000001
-0.85284364 -0.88435268 2.4000001
-0.81713343 -0.88435268 2.4000001
-0.85284364 -0.87595028 2.4000001
-0.84654188 -0.87595028 2.4000001
-0.82553589 -0.87384969 2.4000001
-0.81923407 -0.87595028 2.4000001
-0.85284364 -0.86964846 2.4000001
-0.84444124 -0.86544728 2.3999999
-0.83463848 -0.86264646 2.4000001
-0.8251158 -0.86460704 2.4000001
-0.81923407 -0.86754787 2.4000001
-0.84234071 -0.85494423 2.4000001
-0.83393824 -0.85494423 2.4000001
-0.82763648 -0.85494423 2.4000001
-0.84234071 -0.84864247 2.4000001
-0.83393824 -0.84654188 2.4000001
-0.82763648 -0.84864247 2.4000001
-0.85564446 -0.39211202 2.4000001
-0.85704488 -0.38651043 2.4000001
-0.86124605 -0.24787082 2.4000001
-0.86124605 -0.23526722 2.4000001
-0.86124605 -0.22476421 2.4000001
-0.86124605 -0.21426122 2.4000001
-0.86124605 -0.20375821 2.4000001
-0.86124605 -0.19535582 2.4000001
-0.86124605 -0.18905401 2.4000001
-0.85704488 -0.18275222 2.4000001
-0.76881963 0.67639327 2.4000001
-0.48313802 0.77722204 2.4000001
-0.48313802 0.78142327 2.4000001
-0.47683626 0.7856245 2.4000001
-0.47263503 0.79402685 2.4000001
-0.46423262 0.79822809 2.4000001
-0.45583022 0.79822809 2.4000001
-0.44742781 0.79822809 2.4000001
-0.46423262 0.80242926 2.4000001
-0.45653042 0.80382967 2.4000001
-0.44952843 0.80242926 2.4000001
-0.45793083 0.81083167 2.4000001
-0.46633324 0.82763648 2.4000001
-0.46633324 0.83393824 2.4000001
-0.45653042 0.89765644 2.4000001
-0.45583022 0.90535867 2.4000001
-0.44952843 0.90535867 2.4000001
-0.45653042 0.9130609 2.4000001
-0.44812804 0.91446131 2.4000001
-0.45793083 0.9200629 2.4000001
-0.47683626 0.94947129 2.4000001
-0.49154043 0.9578737 2.4000001
-0.48593885 0.95507288 2.4000001
-0.49574164 0.96207488 2.4000001
-0.50624466 0.97467846 2.4000001
