# .PCD v0.7 - Point Cloud Data file format
VERSION 0.7
FIELDS x y z
SIZE 4 4 4
TYPE F F F
COUNT 1 1 1
WIDTH 319
HEIGHT 1
VIEWPOINT 0 0 0 1 0 0 0
POINTS 319
DATA ascii
0.8063277 -0.084631667 1.477
0.73434287 -0.046508636 1.4759232
0.74995077 -0.049589321 1.4742459
0.73395741 -0.029662549 1.4737502
0.7507838 -0.029877277 1.4727795
0.790227 -0.030135775 1.4769995
0.80722654 -0.030656511 1.4770005
0.75140321 -0.08999411 1.4875579
0.78980106 -0.088980548 1.4832509
0.78587753 -0.075991757 1.483
0.73658532 -0.051250614 1.4861001
0.74253953 -0.052544564 1.4843334
0.82434535 -0.04554785 1.483
0.74569857 -0.025959916 1.483
0.015111349 0.17516162 1.5779998
0.028359504 0.17733896 1.5779999
0.052002173 0.17487964 1.5774163
0.061230745 0.17494498 1.5780001
-0.064913794 0.19750369 1.5780001
-0.048493527 0.19765715 1.5780001
-0.030971123 0.19059798 1.5779995
0.0098437928 0.19074865 1.5780002
0.030385181 0.19059798 1.5779999
-0.12430301 0.21822084 1.5780001
-0.10441454 0.21711592 1.5780001
-0.092536688 0.21545859 1.5779997
-0.062151507 0.21338683 1.5780001
-0.04909341 0.21056175 1.5779997
-0.033640739 0.20934209 1.5779996
-0.0112218 0.2092434 1.5779998
0.0096680131 0.20993391 1.5780004
0.030385181 0.20993401 1.5779999
-0.14271829 0.23157191 1.5780001
-0.13013451 0.2314952 1.5779995
-0.10973822 0.22996058 1.5779997
-0.089774393 0.2292701 1.5780004
-0.068884596 0.22944266 1.5779999
-0.049700189 0.22918646 1.5774285
-0.031201318 0.22970943 1.5779997
-0.017954879 0.22927001 1.5780001
0.0099659041 0.22889084 1.5780002
0.029727496 0.22802043 1.5779995
-0.16826946 0.25620234 1.5779996
-0.14876901 0.25452515 1.5779996
-0.12982754 0.24998713 1.5780004
-0.11035021 0.2496675 1.576
-0.089774385 0.24998714 1.5780007
-0.069207892 0.24986158 1.5780002
-0.050715636 0.24965568 1.5779999
-0.032533627 0.24123992 1.5780001
0.0080743823 0.24871224 1.5780002
0.023479458 0.24170031 1.5780001
-0.16988079 0.27070445 1.5780004
-0.14916368 0.27070433 1.5779999
-0.12982754 0.27070433 1.5779999
-0.11049156 0.27070433 1.5779999
-0.089774385 0.27070436 1.5780004
-0.073200673 0.26921692 1.5779996
-0.049575817 0.26619744 1.5779997
0 0.26241747 1.5780001
-0.26517975 0.29188192 1.5780001
-0.20928274 0.28984198 1.5683459
-0.16981506 0.29088989 1.5760006
-0.14913666 0.28998753 1.5777142
-0.12994266 0.28986767 1.5779999
-0.11100549 0.28907681 1.5779996
-0.091462471 0.28405544 1.5779997
-0.075962953 0.28175351 1.5780001
-0.26241747 0.30799526 1.5780001
-0.23062243 0.30971405 1.5718361
-0.21035729 0.31016794 1.5719998
-0.18984759 0.30947998 1.5743017
-0.15015019 0.30858722 1.5779995
-0.13443142 0.30323797 1.5780001
-0.11739729 0.30108953 1.5780001
-0.22846569 0.32968864 1.5774468
-0.20908532 0.32980755 1.5740372
-0.17055801 0.32900175 1.5770392
-0.19378524 0.3450737 1.5780001
-0.0069669904 0.15884739 1.5920001
0.0077046719 0.15667523 1.5915886
0.033441555 0.15732731 1.5920001
0.046680901 0.15462592 1.5907651
-0.045109339 0.17764077 1.5906
-0.029516933 0.17386489 1.5882311
-0.010425978 0.17050464 1.5891364
0.0079522431 0.16800368 1.585795
0.031329509 0.16822869 1.5882436
0.047328021 0.16690443 1.58725
-0.10032467 0.19786254 1.5920001
-0.088512123 0.19527009 1.589375
-0.069342375 0.19181298 1.5875604
-0.050032981 0.18871328 1.5859127
-0.029675547 0.18806577 1.5849996
-0.011100139 0.19014286 1.5857494
0.0034681782 0.18103892 1.585
-0.13005382 0.2125936 1.5867946
-0.11129555 0.20975333 1.5878296
-0.088858373 0.20823674 1.5849994
-0.069980122 0.21055697 1.5849994
-0.055490851 0.20531614 1.585
-0.011014092 0.21120156 1.5849994
-0.18882973 0.23398738 1.5891174
-0.17086765 0.23295391 1.5912631
-0.15036568 0.2302229 1.5885812
-0.12954982 0.22409768 1.585
-0.11764061 0.22418308 1.585
-0.077687196 0.22196342 1.585
-0.010481605 0.23028708 1.5849994
0.0066589019 0.23417142 1.585
-0.18976174 0.24871154 1.5851421
-0.17044203 0.24753211 1.5857996
-0.15022166 0.24653788 1.5849996
-0.06103994 0.25803247 1.585
-0.041618139 0.2524834 1.585
-0.030042697 0.25145808 1.5855246
-0.01109817 0.24970871 1.5849993
-0.23191909 0.26940668 1.5866663
-0.18866891 0.26080701 1.585
-0.064122766 0.27175105 1.5849997
-0.049710553 0.27259886 1.5849996
-0.011490973 0.26771244 1.5886838
0.0094659161 0.26861569 1.5897247
-0.25089791 0.28676879 1.5849996
-0.23167433 0.28716516 1.5849994
-0.12485442 0.29965061 1.585
-0.10728233 0.29826337 1.585
-0.089369483 0.29417455 1.5849994
-0.068829998 0.29057994 1.5849994
-0.05044657 0.28870666 1.586458
0 0.28146642 1.5920001
-0.26358154 0.30381241 1.585
-0.12936306 0.31213591 1.5849994
-0.11068653 0.31110299 1.5849993
-0.092381828 0.30879113 1.5876483
-0.069408648 0.30615208 1.5892003
-0.054468762 0.30330276 1.5912224
-0.23195176 0.33460984 1.585
-0.16416045 0.33756936 1.585
-0.13081512 0.33061266 1.5879164
-0.11250559 0.32718945 1.5897499
-0.096608937 0.32141051 1.5920002
-0.20439132 0.35699114 1.585
-0.18861108 0.35290304 1.5852053
-0.16913711 0.3637841 1.5920002
0.78874916 -0.13852583 1.6150001
0.012378079 0.13590465 1.6118889
0.029244695 0.1340161 1.6081738
-0.047783881 0.15670191 1.6142727
-0.030029451 0.15356664 1.6118573
-0.010736486 0.15145016 1.608714
0.010560471 0.14726916 1.6022332
0.030139964 0.147902 1.6009327
0.042012002 0.14676192 1.6
-0.15497003 0.17751646 1.6096668
-0.10540888 0.17689306 1.6150001
-0.089373343 0.17545472 1.6123333
-0.069398232 0.17162457 1.6085777
-0.051091608 0.16911843 1.6055876
-0.031829815 0.16494967 1.6044331
-0.017193193 0.16244707 1.6035001
-0.14812909 0.19497018 1.6131819
-0.12883759 0.19352999 1.6107434
-0.10979661 0.1895574 1.6059088
-0.090410009 0.1846174 1.6042899
-0.072899044 0.1828803 1.6016157
-0.058816802 0.18205202 1.6
-0.20166346 0.21674111 1.6150001
-0.18789835 0.21532112 1.6103849
-0.16852517 0.21120888 1.6088598
-0.15062051 0.20882575 1.6051157
-0.13100544 0.20371109 1.6020004
-0.1134324 0.20165761 1.6
-0.28553283 0.23747286 1.6150001
-0.24272314 0.23545355 1.6150001
-0.22723448 0.232489 1.6118672
-0.211035 0.22896342 1.6074221
-0.19201303 0.22498016 1.6032499
-0.16890633 0.22448274 1.6007781
-0.15777841 0.2231304 1.6000001
-0.24977933 0.24941434 1.608428
0.087707378 0.24994776 1.6065933
-0.0077022002 0.27657902 1.6
0.069751851 0.26363704 1.614
0.088639423 0.26169342 1.6140001
-0.043412402 0.29968563 1.6
-0.028758235 0.29052871 1.6031106
-0.01123571 0.28931588 1.6045711
0.0092264302 0.28848892 1.6050432
-0.086020105 0.31606871 1.6007003
-0.070227146 0.31452879 1.600467
-0.049315028 0.31189117 1.6055803
-0.032211583 0.30663252 1.6101784
-0.012046298 0.30560645 1.6141578
0 0.30249518 1.6150001
-0.1077163 0.33537376 1.6020591
-0.089570679 0.33024165 1.6084206
-0.070870526 0.32827526 1.6113999
-0.056318216 0.3266131 1.6144286
-0.11154283 0.34777355 1.611654
-0.097533494 0.34207401 1.6150001
-0.18721257 0.37606278 1.6025792
-0.1715731 0.37380832 1.6036398
-0.20974274 0.39140207 1.6050993
-0.1920193 0.3873125 1.607064
-0.17566656 0.38522699 1.6134001
-0.21768343 0.4014422 1.6150001
0.0028673194 0.1175601 1.6380002
0.024372216 0.1175601 1.6380001
-0.020071236 0.13619767 1.6380001
-0.0089669656 0.13271141 1.63671
0.0087539004 0.1270556 1.6308894
0.025648829 0.12377236 1.6282859
-0.10609081 0.15626891 1.6380001
-0.065807424 0.15610677 1.6345003
-0.051789295 0.15237269 1.6307622
-0.0304552 0.14554617 1.628737
-0.013473123 0.14240606 1.6270912
-0.14602473 0.17784281 1.6311431
-0.12968488 0.176504 1.6356475
-0.1095164 0.17037137 1.6325951
-0.090281978 0.16807783 1.6305931
-0.07429228 0.16280212 1.6260003
-0.1879755 0.19770943 1.6353339
-0.16934863 0.19407657 1.6327505
-0.15085889 0.18786253 1.6261296
-0.13296799 0.18383871 1.6277146
-0.22870241 0.21589226 1.633131
-0.21031818 0.21248528 1.6281183
-0.19212462 0.20654052 1.627162
-0.17547615 0.20309204 1.6242858
-0.28320819 0.23766366 1.6260002
-0.26858419 0.2350328 1.6250004
-0.2497157 0.2290616 1.6233665
-0.23279572 0.22576626 1.6228421
-0.21862696 0.22146627 1.6220001
-0.28428605 0.24311604 1.622
-0.2713249 0.2436197 1.6229999
-0.25695765 0.24134146 1.6220001
0.071471445 0.27374849 1.6256927
0.018928742 0.29718125 1.6220001
-0.027994001 0.31630033 1.6244614
-0.010441151 0.31511611 1.6260008
0.0089754537 0.30990925 1.6278542
0.028223006 0.30549356 1.6318828
-0.063884504 0.33787805 1.6220001
-0.047879841 0.33088017 1.6258265
-0.031266585 0.3278659 1.6333946
-0.011443604 0.32343 1.6326668
-0.10648388 0.354617 1.624182
-0.090087272 0.35043284 1.6289196
-0.07329274 0.34429678 1.6228001
-0.12540293 0.36674437 1.6220001
-0.11166375 0.36317125 1.6280003
-0.097488858 0.36128223 1.6380001
0.013593134 0.11698844 1.6472859
0.023036582 0.11518292 1.6450002
-0.045675103 0.13731328 1.6514002
-0.02914539 0.13436227 1.6506667
-0.010318469 0.12550139 1.6450003
-0.10174491 0.15741664 1.6450002
-0.089593783 0.15675358 1.6511177
-0.070663475 0.15075421 1.6475456
-0.048318781 0.1446466 1.6492107
-0.032909404 0.14192182 1.6450002
-0.12631726 0.16912691 1.6450005
-0.11387402 0.16439743 1.6450003
-0.090866514 0.16189598 1.6450002
-0.22604646 0.20948891 1.6450001
-0.21596795 0.20732924 1.6450002
-0.020157009 0.33259064 1.6450001
-0.015837651 0.32971108 1.6450001
-0.026168227 0.1290966 1.6610001
-0.086775638 0.15178365 1.6675453
-0.069781944 0.14610595 1.6610001
-0.056697827 0.14247146 1.6610001
-0.22959648 0.20857695 1.7698107
-0.25311396 0.22147468 1.7720002
-0.22798865 0.22023392 1.7720001
-0.15009215 0.18572232 1.7810003
-0.24213676 0.21719564 1.7810001
-0.2291466 0.21823485 1.7810001
-0.20159195 0.20784694 1.7855
-0.19254477 0.20413132 1.7822859
-0.25114453 0.22574337 1.782286
-0.23214374 0.22172534 1.7840002
-0.64072853 0.356141 1.858
-0.72187644 0.40437603 1.8555
-0.71436447 0.40628076 1.8575001
-0.64960289 0.40336514 1.8554999
-0.61073387 0.40185568 1.858
-0.69439363 0.4585925 1.858
-0.70583802 0.40790662 1.8687694
-0.69007242 0.40948978 1.870941
-0.66782665 0.41480199 1.8691112
-0.6479187 0.4126744 1.8700001
-0.6297645 0.41077513 1.8684547
-0.70022458 0.42243597 1.8780001
-0.68688148 0.42582014 1.8780001
-0.67093664 0.4267695 1.8779998
-0.60751885 0.42999709 1.8780003
-0.59721822 0.43175039 1.8780001
-0.64729685 0.44676301 1.878
-0.62908441 0.44788077 1.8779995
-0.60982007 0.44873551 1.8779992
-0.67179799 0.4689436 1.8780001
-0.64997375 0.46752083 1.8780003
-0.62499201 0.46842819 1.8730001
-0.60968691 0.46743065 1.8748568
-0.69073343 0.43324813 1.8880004
-0.6680119 0.4358395 1.8880004
-0.64916068 0.43294767 1.8880002
-0.62876564 0.43278241 1.8880004
-0.6109426 0.43058705 1.8880004
-0.66840351 0.45138445 1.890276
-0.65077353 0.45548141 1.8880004
-0.63322729 0.45244691 1.8880004
-0.59819496 0.44286254 1.8880001
-0.66858721 0.4712038 1.8884587
