# .PCD v0.7 - Point Cloud Data file format
VERSION 0.7
FIELDS x y z
SIZE 4 4 4
TYPE F F F
COUNT 1 1 1
WIDTH 1467
HEIGHT 1
VIEWPOINT 0 0 0 1 0 0 0
POINTS 1467
DATA ascii
0.81938285 0.14570287 1.7900001
-0.52242243 0.16986801 1.7900008
-0.341479 0.16577505 1.784471
-0.31520423 0.16540788 1.7827772
-0.28411505 0.16498366 1.775401
-0.25489861 0.1655117 1.7780006
-0.22464952 0.16629763 1.7720016
-0.19507428 0.16457002 1.7721511
-0.16541658 0.16609298 1.7741802
-0.13297443 0.16603424 1.77231
-0.082199991 0.1530264 1.7720002
0.054846209 0.15966707 1.7794347
0.065956891 0.16621214 1.7875775
0.81853449 0.15223458 1.7870001
-0.54207736 0.20993748 1.7900001
-0.52564538 0.19765894 1.7899995
-0.34372181 0.19466911 1.7827585
-0.31464973 0.1947287 1.7768394
-0.28618956 0.19466262 1.7802178
-0.25964767 0.19478774 1.7746181
-0.22254626 0.19745281 1.7722642
-0.19622806 0.19425339 1.7769501
-0.16782697 0.18801637 1.7744995
0.42300835 0.2068041 1.7900001
-0.54741997 0.22822961 1.786087
-0.52582353 0.22579071 1.7891468
-0.31496701 0.22400439 1.777824
-0.20782638 0.21092826 1.7720001
0.41432741 0.21665786 1.7888755
0.42435125 0.21709955 1.7900002
0.81718951 0.23312461 1.7900002
-0.54948848 0.25189924 1.7840003
-0.52656806 0.2547875 1.7851204
0.55880976 0.26640621 1.7872311
0.82094955 0.26633859 1.7900001
-0.5461607 0.28464392 1.77425
0.52820855 0.2970714 1.7843335
-0.54719967 0.31690747 1.7727498
0.52550948 0.31455979 1.7800239
-0.55123323 0.34388205 1.7740767
-0.53972822 0.33190182 1.7720001
-0.55485499 0.36840826 1.7835716
0.37048689 0.37165451 1.7828814
0.40718156 0.37210038 1.7744004
-0.16052262 0.41410184 1.7720001
0.33725965 0.39972222 1.7844059
-0.2369407 0.44270498 1.7810001
-0.067355253 0.50472128 1.7720003
0.29312825 0.49475086 1.7720001
0.30088297 0.49940369 1.7720001
-0.07444527 0.51801503 1.7720001
0.34289944 0.53803635 1.7720001
0.3238886 0.54567349 1.7720001
0.34553409 0.54444724 1.7733846
0.89722067 0.56338012 1.7720002
0.89799607 0.58470559 1.7720001
0.91394472 0.58765703 1.7738461
-0.16333193 0.62929982 1.7797146
0.82626837 0.62517285 1.7747692
0.88744968 0.60859013 1.7720002
-0.15679812 0.63343573 1.7855
-0.13690603 0.63654256 1.7840002
-0.10607156 0.63947046 1.7745717
-0.072056442 0.64509505 1.7791378
-0.043979656 0.64990103 1.7812307
-0.018390549 0.65242755 1.7799538
0.0049218228 0.65639615 1.77575
0.82676119 0.6356706 1.7784286
0.86542624 0.63278478 1.7720001
0.8747319 0.63898855 1.7720001
-0.01051946 0.67192513 1.7759476
0.014492949 0.67498118 1.7745595
0.03863449 0.68184268 1.7816138
0.8530187 0.67621124 1.7720001
0.91970932 0.66070175 1.7720001
-0.06752567 0.717013 1.772
-0.049601119 0.71371675 1.7769501
-0.011106848 0.70859563 1.7770871
0.019024899 0.70195693 1.7719997
0.047194004 0.70321697 1.7739668
0.074187443 0.70520407 1.7787268
0.092038482 0.70498353 1.7893081
-0.065139614 0.72584146 1.7720002
-0.047954116 0.73456264 1.7807665
-0.0046974672 0.72529668 1.7885001
0.01328881 0.73571682 1.7752349
0.044655241 0.73426455 1.7746409
0.074522108 0.73230404 1.7778695
0.092080809 0.72969472 1.787429
-0.03290065 0.75201488 1.7900001
0.0062667904 0.75201488 1.7900001
0.054834414 0.75201488 1.7900001
0.067890227 0.75201488 1.7900002
-0.86446351 -0.75585383 1.8166844
-0.36742467 -0.75735748 1.8243999
-0.34651056 -0.75375319 1.8135
-0.31173345 -0.7526018 1.8042351
-0.28415394 -0.7557379 1.8174254
-0.26628259 -0.75806594 1.8272499
-0.86123109 -0.73585409 1.8118004
-0.36265695 -0.74771333 1.8280001
-0.34316796 -0.73848671 1.8246629
-0.31588379 -0.73704553 1.8145331
-0.28523356 -0.73574179 1.8186226
-0.25827581 -0.73310375 1.8238956
-0.23999357 -0.72478056 1.8280001
-0.86132264 -0.70484263 1.8131227
-0.33385774 -0.71891403 1.8280001
-0.31040391 -0.70842624 1.8265946
-0.28470492 -0.7060433 1.8236809
-0.25515813 -0.70531577 1.823216
-0.23684596 -0.70913887 1.8268747
-0.86137921 -0.67533684 1.812035
-0.30612513 -0.68531501 1.8279998
-0.28206649 -0.67849106 1.8276733
-0.25525299 -0.67384499 1.8205706
-0.2297028 -0.67351353 1.8230348
-0.86496067 -0.64517403 1.8133335
-0.27759254 -0.65918231 1.8280001
-0.25225478 -0.64526051 1.8216475
-0.23150285 -0.64411283 1.8246255
-0.8638916 -0.61426193 1.8142794
-0.24832664 -0.61851448 1.8231353
-0.22951011 -0.61548305 1.8246258
-0.20159459 -0.6015839 1.8280001
-0.86436445 -0.5852083 1.8118467
-0.21698466 -0.58863181 1.8279995
-0.1953762 -0.58334851 1.8254297
-0.17855521 -0.57790452 1.8280001
-0.86366767 -0.55351317 1.8129128
-0.18968382 -0.56638485 1.8279996
-0.17759523 -0.56318498 1.8280001
-0.12159674 -0.54398549 1.8280001
-0.86537308 -0.52492476 1.8139058
-0.12159674 -0.53598565 1.8280001
-0.86222273 -0.49528554 1.812187
-0.86370802 -0.46450877 1.8142049
-0.86312455 -0.43603441 1.8127168
0.72958046 -0.42238867 1.8280001
-0.8634696 -0.4047167 1.8131094
-0.86291027 -0.37541375 1.8134766
-0.86279082 -0.34355 1.8110412
-0.86288512 -0.31519294 1.8100603
-0.86217296 -0.28419337 1.8089439
-0.86211991 -0.25583833 1.8085408
-0.86296219 -0.22461808 1.8114393
-0.86325753 -0.19405058 1.8119006
0.1343964 -0.18239512 1.8280001
-0.86199635 -0.16608965 1.8133821
-0.0111997 -0.15146261 1.8280001
0.011163842 -0.15853347 1.8166672
0.13775544 -0.17569457 1.8215001
0.15199593 -0.17279537 1.8280001
0.20799443 -0.17599529 1.8280001
0.23631752 -0.15439411 1.8000001
0.24769926 -0.15700938 1.8204547
0.6585381 -0.15124321 1.8000001
0.66212553 -0.15254325 1.8156669
-0.85091144 -0.13488522 1.8125817
-0.21726723 -0.12457138 1.8210772
-0.20659111 -0.12396051 1.8156669
-0.14724946 -0.12349954 1.8090001
-0.0111396 -0.14130411 1.8153336
0.0038350956 -0.14412332 1.8038571
0.17881358 -0.13470098 1.8000001
0.19122089 -0.1331562 1.8045939
0.21119434 -0.12799656 1.8280001
0.24746004 -0.14186287 1.8280001
0.65713674 -0.13502412 1.817258
0.6736809 -0.13046345 1.8151779
0.70319873 -0.12895913 1.8183702
0.74121231 -0.12987466 1.8149143
0.75254107 -0.12538378 1.8150002
-0.85502911 -0.10516889 1.8123266
-0.51198626 -0.10399722 1.8280001
-0.20741589 -0.11716623 1.8090001
0.17663312 -0.10792602 1.8093076
0.18407501 -0.103197 1.8192666
0.74771333 -0.11733019 1.8280001
0.76071686 -0.10732185 1.8176669
0.78011912 -0.10189311 1.8190001
0.83865148 -0.10423177 1.8045001
0.85751039 -0.1013735 1.8098888
0.88432014 -0.1009514 1.8175884
-0.8621648 -0.074503593 1.813639
-0.51198626 -0.075197987 1.8279999
0.1764504 -0.088225201 1.8000001
0.18049933 -0.088666335 1.8090001
-0.86030161 -0.045538895 1.8134427
-0.52016377 -0.03946561 1.8279994
-0.86016583 -0.014994062 1.8136383
-0.5249384 -0.015237689 1.828001
0.3615903 -0.025599314 1.8280001
0.47742721 -0.00447988 1.8280001
0.48318705 -0.0031999142 1.8280001
-0.85825878 0.013590614 1.8115258
-0.52576226 0.014777731 1.8278826
0.056716204 0.026782651 1.8000001
0.076788001 0.016957892 1.821442
0.098978959 0.01364375 1.825333
0.44561806 0.0099635972 1.8147146
0.46606684 0.0089755803 1.8251247
0.49347252 0.015313875 1.8279997
0.51358622 0.028799228 1.8280001
-0.85933131 0.045452055 1.8133414
-0.54318547 0.047732055 1.8279998
-0.52606714 0.044767957 1.8268759
-0.3553867 0.050313462 1.8027141
-0.30850601 0.048521899 1.803
-0.28545901 0.050242938 1.8054104
-0.021779882 0.047571432 1.8008182
0.023631752 0.031509001 1.8000001
0.055433456 0.042811614 1.8014209
0.074837178 0.044638582 1.8137008
0.52297348 0.039631676 1.8262001
0.54789644 0.044443253 1.8279999
0.58591312 0.050428517 1.8222499
0.60661238 0.055312805 1.8280002
0.8921361 0.055678505 1.8280001
0.90504241 0.052265268 1.8280001
-0.85941392 0.07482291 1.8130965
-0.54284257 0.073598027 1.8279997
-0.52476132 0.075236477 1.8194238
-0.28278595 0.062698714 1.8030001
0.059867106 0.079822809 1.8000001
0.076388985 0.074956656 1.8100697
0.19618891 0.073673621 1.8137629
0.28389317 0.083015092 1.8053172
0.59709561 0.064593449 1.8000001
0.61661452 0.066435799 1.8188002
0.64252526 0.072510414 1.826105
0.67496353 0.083970651 1.81748
0.70970637 0.085497171 1.8203
0.72882324 0.079772174 1.8205863
0.77135396 0.085880272 1.8227501
0.78797889 0.087197661 1.8280001
0.89465994 0.066493228 1.8247272
0.9034425 0.065064922 1.8280001
-0.86069614 0.10473958 1.8154131
-0.54610997 0.10588046 1.8150002
-0.52604479 0.10622163 1.8128577
0.059236921 0.095787369 1.8000001
0.077317007 0.10395846 1.8079606
0.6816678 0.097870119 1.8112
0.70601058 0.10039781 1.8191805
0.72792208 0.098769143 1.8244615
0.77210218 0.098731719 1.8231335
0.80237246 0.10845297 1.8225834
0.8882134 0.10891054 1.82348
0.90682185 0.1076565 1.8226154
-0.85824609 0.12784296 1.8157504
-0.54725122 0.13697077 1.8147312
-0.52376902 0.13436155 1.8014125
0.77273273 0.12857181 1.8223848
0.79448187 0.13349646 1.8191938
0.82464284 0.13334668 1.8126665
0.91025376 0.13508612 1.8173833
-0.73149908 0.17672473 1.8214288
-0.55011767 0.16616128 1.8149095
-0.52409089 0.16295128 1.8001374
0.77354598 0.17802586 1.8000001
0.7964651 0.17394602 1.8097274
0.82482111 0.16668348 1.812
-0.66716373 0.19562654 1.8262689
-0.6452148 0.20140736 1.8213339
-0.61547053 0.19870307 1.8239999
-0.5948419 0.20832293 1.8123335
-0.55260587 0.19455855 1.8120264
-0.51779789 0.1859031 1.7999998
-0.50729489 0.19670621 1.8000002
0.46599191 0.19523203 1.8256757
0.77500695 0.18649606 1.8057274
0.79451251 0.19361848 1.8095692
-0.73161888 0.23107879 1.8270997
-0.71002543 0.23217157 1.8279999
-0.64188391 0.2246135 1.8196833
-0.61506855 0.22648159 1.8155762
-0.58576739 0.22575612 1.8119199
-0.56039906 0.22450916 1.8079001
0.80215859 0.22059883 1.8073643
-0.72619975 0.25374091 1.8244514
-0.7145409 0.25743309 1.8279995
-0.63038313 0.24479344 1.8280001
-0.61185676 0.24886784 1.825677
-0.58608931 0.25314751 1.8151006
-0.56716204 0.24261931 1.8000001
-0.72318059 0.27199271 1.8280001
-0.71838075 0.27199271 1.8280001
0.49706703 0.28514659 1.8189718
0.52633172 0.28459835 1.813455
-0.5652225 0.30798998 1.8140001
0.49059653 0.31239802 1.8111337
0.4308278 0.34867394 1.7999998
0.47423261 0.3356334 1.8052143
0.4846532 0.33332852 1.8135556
-0.57598454 0.36479023 1.8280001
-0.56892014 0.37028652 1.8156669
0.34712416 0.38283437 1.8000001
0.36707985 0.3623535 1.8000001
-0.14169511 0.41712493 1.8190001
0.48733923 0.42957276 1.8000001
-0.76477951 0.62078339 1.8280001
-0.24485013 0.60857135 1.8238461
-0.23172712 0.61953908 1.8279994
-0.19380586 0.62409437 1.8264114
-0.16460736 0.62222064 1.8235003
-0.13648109 0.62142223 1.8241673
-0.10480513 0.62474746 1.8202503
-0.083014444 0.62606484 1.8239092
-0.053981923 0.62713856 1.8140001
-0.21903645 0.63395131 1.8222082
-0.19510221 0.6337316 1.8168687
-0.16439606 0.63306618 1.8125789
-0.13414349 0.636666 1.8132294
-0.10487835 0.63847578 1.8094164
-0.074327946 0.63774651 1.8116463
-0.047812898 0.64283699 1.8128198
-0.01796655 0.65358073 1.8117503
0 0.6585381 1.8000001
-0.0053174361 0.66233093 1.8220003
0.01761166 0.66751283 1.8144137
0.046259228 0.671911 1.8076591
0.07290864 0.67982727 1.8149433
0.096298367 0.68468797 1.8235002
-0.75597972 0.71598077 1.8280001
0.056716207 0.69184768 1.8000002
0.077233307 0.69337517 1.8048238
0.10436445 0.70674944 1.8181624
-0.75729525 0.73907888 1.8191538
-0.033899538 0.73720187 1.8037895
-0.016850086 0.73785603 1.8057542
0.088225201 0.74991423 1.8000001
0.10717504 0.73583823 1.8093954
0.12196027 0.74445915 1.8123335
-0.75583112 0.757559 1.8213574
-0.74798 0.76237959 1.8280001
-0.031587772 0.75178117 1.8045001
-0.016503332 0.75459963 1.8067504
0.084219314 0.76370651 1.8200002
0.10608289 0.75696039 1.8101487
0.12169002 0.75592583 1.8090003
-0.86485279 -0.76471275 1.8497243
-0.37161016 -0.75549555 1.8460001
-0.25289264 -0.7636711 1.8498753
-0.86481702 -0.73324734 1.8476429
-0.36323982 -0.73986179 1.8426155
-0.34904155 -0.72684401 1.8434169
-0.24764121 -0.74403113 1.8413333
-0.23235841 -0.73025244 1.8474998
-0.86327684 -0.70707542 1.8493892
-0.33747396 -0.71036565 1.8510307
-0.32369152 -0.70393419 1.8444999
-0.24174407 -0.7026636 1.8413334
-0.22566706 -0.7042557 1.8439372
-0.86312038 -0.67381221 1.8480002
-0.33174777 -0.68951499 1.858
-0.31096435 -0.67728746 1.8516963
-0.29195452 -0.67031068 1.8392906
-0.21569914 -0.67312074 1.8436756
-0.20503974 -0.67348653 1.856696
-0.86492544 -0.64553529 1.8447998
-0.30458984 -0.65403169 1.857
-0.28391975 -0.64666164 1.8482084
-0.2638284 -0.64519984 1.8379999
-0.21631168 -0.64695776 1.8419999
-0.20135364 -0.64173394 1.8530003
-0.86313504 -0.61388016 1.8470911
-0.27485481 -0.62227428 1.8563333
-0.25975546 -0.61172032 1.8444813
-0.22010936 -0.61178267 1.8380004
-0.19600084 -0.6141398 1.8429288
-0.17212623 -0.60685617 1.8532939
-0.86362332 -0.58664149 1.8469794
-0.25062361 -0.59273702 1.8496668
-0.22758445 -0.58369011 1.8432853
-0.19313833 -0.58479261 1.8410769
-0.16511573 -0.58478057 1.8425446
-0.13698046 -0.577887 1.850353
-0.11275088 -0.57351172 1.8580002
-0.86307889 -0.55409664 1.8465106
-0.22034629 -0.56526053 1.8534288
-0.1946463 -0.55376679 1.8486028
-0.1641136 -0.55451447 1.8427918
-0.13666201 -0.55507547 1.8435558
-0.10725164 -0.55281842 1.8501625
-0.082756251 -0.54496258 1.858
-0.86356157 -0.52612376 1.8463787
-0.19121778 -0.53511059 1.8572598
-0.16369316 -0.52578199 1.8516489
-0.13534069 -0.52416754 1.8458166
-0.10533147 -0.5240339 1.8466966
-0.075580247 -0.52434254 1.8549343
-0.051419362 -0.51527774 1.8580003
-0.86472052 -0.49422622 1.8490002
-0.61145669 -0.48461196 1.858
-0.15394831 -0.50629485 1.8580002
-0.13465844 -0.49883446 1.8555008
-0.10287283 -0.49787164 1.8516234
-0.07483194 -0.49461719 1.8541642
-0.045606811 -0.4942221 1.8555652
-0.018028783 -0.49172235 1.8572198
0.0057801516 -0.48782492 1.8557777
0.76070708 -0.49834442 1.858
-0.86408299 -0.46624538 1.8463335
-0.072095528 -0.47196361 1.8580009
-0.044585928 -0.47204357 1.8566965
-0.015014637 -0.46598831 1.8580012
0.013599657 -0.46499002 1.8497294
0.043925129 -0.45971304 1.8520002
0.072623074 -0.45646399 1.8562613
0.097572878 -0.45338866 1.858
-0.86567116 -0.43484789 1.8476554
-0.011790056 -0.44842866 1.8579999
0.016346609 -0.44002834 1.8516117
0.045809086 -0.43608621 1.8495127
0.074084722 -0.43500355 1.8452837
0.10398015 -0.43448737 1.8456924
0.13498172 -0.42969954 1.8496668
0.16212544 -0.42579085 1.8499353
0.18115576 -0.42054015 1.848
0.32349244 -0.42054015 1.848
0.74118447 -0.42493039 1.853
-0.86589712 -0.40328261 1.8488337
0.055357814 -0.40901771 1.855143
0.074292585 -0.40437323 1.8456672
0.10489609 -0.40451938 1.8393395
0.13499475 -0.40530929 1.8457781
0.16390243 -0.41037273 1.8479998
0.18623012 -0.40609214 1.8517931
0.32249698 -0.41772652 1.8546667
-0.86398089 -0.37419659 1.847762
0.079942465 -0.3818858 1.8530002
0.10576629 -0.37643421 1.8492372
0.13540481 -0.37425876 1.8413327
0.1618793 -0.37156138 1.8406979
0.18584289 -0.36127803 1.8560002
-0.86401904 -0.34535211 1.8492502
0.11600332 -0.35559893 1.8580002
0.13642332 -0.35738239 1.8535
0.16446957 -0.35694277 1.8523997
0.18538846 -0.35776722 1.858
-0.87019461 -0.30731782 1.8479999
-0.86442107 -0.31733531 1.8503258
-0.87106848 -0.29598087 1.8540001
-0.86588514 -0.28170723 1.8422858
-0.87019461 -0.26202887 1.848
-0.8667677 -0.25417849 1.8474289
-0.86623693 -0.22441491 1.8488575
-0.63081026 -0.21781823 1.848
0.14364895 -0.21574448 1.858
0.15774281 -0.21994552 1.8579999
0.2171254 -0.22296403 1.854
-0.8637256 -0.19530149 1.8470476
-0.63097125 -0.20815547 1.858
-0.61593121 -0.19184129 1.8563644
-0.58478677 -0.18668948 1.858
0.04662716 -0.19074941 1.8536527
0.11562578 -0.19144577 1.8563333
0.13328865 -0.19233902 1.8531792
0.15265848 -0.18839583 1.8555
0.20737883 -0.18530563 1.8463334
0.2168397 -0.18632658 1.8457778
-0.86103618 -0.16381238 1.8468893
-0.63097125 -0.16424768 1.858
-0.61450654 -0.16710146 1.8551438
-0.58530581 -0.165168 1.8495198
-0.55776232 -0.16675004 1.8541045
0.015178322 -0.17244045 1.8454999
0.037859406 -0.1739258 1.8479998
0.11645728 -0.17630337 1.8479999
0.12708132 -0.17653196 1.8480002
0.15773897 -0.17654704 1.854
0.20485753 -0.17743945 1.8430001
0.21556708 -0.17695805 1.8380001
0.67699331 -0.15837544 1.854
-0.85464597 -0.13537785 1.8467503
-0.58218479 -0.14961174 1.858
-0.56712711 -0.14907493 1.8513334
-0.52258426 -0.13622445 1.8508953
-0.026992075 -0.14257792 1.8434546
0.1996527 -0.12430267 1.8479999
0.22419517 -0.12362747 1.8504999
0.65604162 -0.13213308 1.847524
0.67122447 -0.13037625 1.8487142
0.70396519 -0.12237957 1.8462613
0.73443246 -0.12512925 1.8424002
-0.85723084 -0.10408009 1.8469131
-0.54120684 -0.093987852 1.8513334
-0.52622694 -0.10527878 1.8436662
0.19682907 -0.11112615 1.8500005
0.22583033 -0.10482483 1.8518671
0.67297029 -0.11750504 1.8507273
0.71593499 -0.11812935 1.8540001
0.73743981 -0.11771449 1.8490524
0.76317436 -0.10215098 1.8480003
0.7908929 -0.091956012 1.8461816
0.83587432 -0.091068015 1.8580002
0.85819066 -0.095665574 1.8511578
0.88194388 -0.092928268 1.8453078
0.90573257 -0.093111046 1.8413336
-0.86343187 -0.075199746 1.8477501
-0.54435128 -0.071944855 1.8509998
-0.52750123 -0.074208222 1.8379991
0.23426244 -0.084647201 1.8479998
0.74805874 -0.066674799 1.858
0.77274263 -0.07877484 1.8496666
0.79533726 -0.074182972 1.8510267
0.82760614 -0.072623216 1.8542718
0.85389668 -0.069505021 1.8552008
0.88477463 -0.073730074 1.8506387
0.90784788 -0.077112332 1.8495386
-0.85984981 -0.044957116 1.8455006
-0.72854412 -0.058543727 1.858
-0.54403812 -0.043914139 1.8492497
-0.52749991 -0.048653647 1.8379999
0.88276893 -0.046174966 1.8507597
-0.85957605 -0.016351907 1.8480002
-0.54884666 -0.015036994 1.8442861
-0.53730905 -0.025739353 1.8380001
0.078887239 -0.00761197 1.8393637
-0.85846496 0.015730312 1.8473185
-0.54669046 0.01231652 1.8434546
0.074293137 0.0043873899 1.8380001
0.11146799 0.020446178 1.8380003
0.13602534 0.023951897 1.8379998
0.58557397 0.014403237 1.8560013
0.61536396 0.013711633 1.8565885
-0.85920829 0.044368606 1.8484082
-0.72647446 0.050560486 1.858
-0.55312818 0.045107141 1.8455003
0.11163044 0.036930379 1.8380002
0.1655592 0.041274894 1.8380005
0.55544752 0.039566897 1.8393332
0.5844363 0.041472651 1.8470563
0.61565024 0.042637002 1.8531673
0.64392835 0.045351919 1.8573763
0.67006421 0.046363059 1.8580012
-0.86041552 0.073597819 1.8462861
-0.73179656 0.08781559 1.858
-0.67464679 0.080381468 1.858
-0.65590662 0.084021084 1.858
-0.55496454 0.075154223 1.8485554
0.17266816 0.063275918 1.8380002
0.18017547 0.064348385 1.8380001
0.62531137 0.062314302 1.8413334
0.64697933 0.064822964 1.8479998
0.67715561 0.069486916 1.8512657
0.70639497 0.072096363 1.8475069
0.76684374 0.073974207 1.8511825
0.79654318 0.073317774 1.8457773
0.91278547 0.077340372 1.844
-0.85833412 0.10552281 1.845451
-0.72664487 0.10515215 1.8482083
-0.70780706 0.10382154 1.8568234
-0.68160075 0.1090648 1.8580008
-0.65699071 0.091068015 1.858
-0.56068689 0.10077046 1.8502221
0.14107145 0.098007545 1.8379999
0.73932874 0.10904338 1.8436756
0.76581782 0.10578067 1.8476747
0.79578 0.10409678 1.8392491
0.82386494 0.10653877 1.8382707
0.90944946 0.092180789 1.8403076
-0.85358864 0.1313082 1.8439093
-0.72912675 0.13633406 1.8544109
-0.70213956 0.13904579 1.850951
-0.67658609 0.13582583 1.8564284
-0.64568102 0.14519946 1.8565719
-0.61282617 0.13677321 1.8580009
-0.58573586 0.14196949 1.8573343
-0.56399804 0.1355062 1.8457775
0.74563837 0.12445473 1.8546667
0.76423025 0.12768395 1.8514004
0.79577094 0.12874794 1.8387691
-0.72878927 0.16578868 1.845111
-0.70586801 0.16547512 1.8515804
-0.67652684 0.16534834 1.8564429
-0.64498848 0.16606669 1.8526169
-0.61435419 0.1725696 1.8564216
-0.58548868 0.16548643 1.8524008
-0.5659852 0.16277505 1.8426666
0.50577831 0.17277543 1.8380002
0.51156962 0.17213193 1.8380001
-0.7299214 0.19520046 1.8455802
-0.70541036 0.19517997 1.847398
-0.67891884 0.19323853 1.8417032
-0.64574653 0.18585786 1.8421669
-0.61153513 0.19087553 1.8481613
-0.58619773 0.19399875 1.8518574
-0.56805325 0.19483259 1.8380002
0.51156962 0.18017547 1.8380001
-0.72937775 0.22061008 1.841207
-0.70468271 0.22522253 1.8383886
-0.67812079 0.22624633 1.8433846
-0.65819204 0.2334927 1.8380003
-0.60495186 0.2114079 1.858
-0.58262783 0.2134095 1.843238
-0.56948316 0.21234967 1.8380001
0.5968312 0.23808901 1.8380001
-0.72070187 0.24934998 1.8380002
-0.70413005 0.25408795 1.8379989
-0.67548734 0.25453445 1.8386012
-0.64682627 0.2557987 1.8408566
-0.61764693 0.2616834 1.8380005
-0.72611415 0.2812553 1.8509998
-0.70475793 0.27886212 1.8475655
-0.6772806 0.27826476 1.8487697
-0.64276308 0.27897105 1.8542169
-0.61344218 0.27913395 1.850558
-0.59007156 0.28228557 1.851056
-0.73234582 0.3229537 1.85425
-0.69276744 0.32849535 1.858
-0.58588922 0.31178299 1.8566667
-0.73028272 0.34420958 1.8549999
-0.70571887 0.34870014 1.8570395
-0.67487907 0.34638372 1.858
-0.63747615 0.35614103 1.858
-0.62771881 0.35776722 1.858
-0.72969347 0.37541503 1.8556604
-0.70650214 0.37435853 1.8560531
-0.67831373 0.38467178 1.8573749
-0.60169941 0.38703907 1.858
-0.58748806 0.37934354 1.8505006
-0.72462797 0.39629278 1.853263
-0.70943123 0.39896393 1.8577882
-0.67212158 0.39729124 1.8580011
-0.64610243 0.39977735 1.8563341
-0.61332941 0.39669779 1.8580009
-0.59209466 0.39680681 1.853385
-0.69439363 0.4585925 1.858
-0.60169941 0.47648087 1.858
-0.59200686 0.47263414 1.8430002
-0.84465396 0.56472665 1.8567499
-0.83869958 0.56706989 1.8546667
-0.14310688 0.5561654 1.858
-0.034150504 0.55291295 1.858
-0.029271863 0.55291295 1.858
-0.8456316 0.57405376 1.858
-0.18524843 0.5965904 1.8565714
-0.1651087 0.59215981 1.8575566
-0.13426955 0.58789086 1.8545284
-0.10516097 0.58668071 1.8531148
-0.074531533 0.58916974 1.8578371
-0.05800166 0.59302628 1.858
-0.78443807 0.61182827 1.8517499
-0.77303022 0.61952949 1.8511248
-0.24512289 0.61392802 1.8449999
-0.22309768 0.61365861 1.8463557
-0.19448155 0.61172378 1.8462274
-0.16522335 0.61079031 1.8492674
-0.13416915 0.60941356 1.8465242
-0.10512783 0.61459643 1.8478901
-0.076103769 0.61498684 1.8533758
-0.056917511 0.60169941 1.858
0.05570022 0.62695712 1.85
0.069329731 0.62769496 1.8563335
-0.84375811 0.65238994 1.8529999
-0.82953984 0.65269625 1.8537142
-0.7623449 0.64955598 1.8499565
-0.74785656 0.65257072 1.8455
-0.24689116 0.64410746 1.8542498
-0.23041995 0.64607233 1.8424119
-0.067943908 0.63210565 1.8486668
-0.044129983 0.64037573 1.8526433
-0.026926195 0.6550892 1.8565714
0.019254332 0.65553617 1.8522426
0.046827205 0.64992458 1.8519291
0.071348019 0.6464594 1.852445
0.10611051 0.65516126 1.8579999
-0.84490883 0.66457969 1.858
-0.82527363 0.67186773 1.8580011
-0.79312813 0.67604059 1.858
-0.7615273 0.67465377 1.852265
-0.74805874 0.66024315 1.858
-0.24230596 0.66024315 1.858
-0.013271973 0.66474891 1.8516363
0.014141939 0.66583472 1.8468891
0.04647471 0.66447049 1.844061
0.076380335 0.66976982 1.8462454
0.10535356 0.67372018 1.8474957
0.12356207 0.67604017 1.8575457
-0.7550981 0.70560223 1.848
-0.74965864 0.71587574 1.8380001
0.11369104 0.69860893 1.8388002
0.12973779 0.70406264 1.8507085
-0.75349098 0.73459256 1.8444289
-0.74878758 0.73261929 1.8452727
0.13176404 0.73261636 1.8443459
-0.75154394 0.75776619 1.8487692
-0.74497688 0.766581 1.8448753
0.084108032 0.77314693 1.848
-0.86155844 -0.78455532 1.8800001
-0.24197513 -0.78151423 1.868
-0.22698705 -0.78352028 1.8793043
-0.19376564 -0.78517652 1.8830003
-0.1708402 -0.78784782 1.8880004
-0.87117147 -0.75939852 1.8780001
-0.8659088 -0.76540411 1.8804486
-0.37277249 -0.75371981 1.868
-0.2433376 -0.76979703 1.868
-0.22695829 -0.76967168 1.8849014
-0.20129634 -0.77415317 1.8851876
-0.87117147 -0.74953622 1.8780001
-0.86477327 -0.73507237 1.8782498
-0.36360455 -0.73485649 1.8713335
-0.35535952 -0.72569734 1.872286
-0.22927956 -0.74221337 1.876182
-0.8644098 -0.70570326 1.8783332
-0.34327823 -0.70158219 1.8750833
-0.21502969 -0.71323556 1.8755001
-0.20709395 -0.69732642 1.8720001
0.595128 -0.69649595 1.868
-0.86516225 -0.67442673 1.8771666
-0.33312577 -0.68513381 1.8780001
-0.32073236 -0.67311072 1.8713334
-0.19808467 -0.67078024 1.8774446
-0.86523682 -0.64340299 1.8785126
-0.30974615 -0.64603227 1.8755001
-0.29364237 -0.63238734 1.8718463
-0.189749 -0.64653111 1.876387
-0.17846699 -0.63124436 1.8880001
0.28312358 -0.65107399 1.8880002
0.52879107 -0.63124436 1.8880001
0.55853558 -0.63785428 1.8880001
0.61306715 -0.64776909 1.8880001
0.66429383 -0.63454932 1.8880001
-0.86283815 -0.61655265 1.877655
-0.62132955 -0.60480481 1.8880001
-0.28250092 -0.61882472 1.8742069
-0.16684997 -0.61573631 1.8800001
0.27431038 -0.60480481 1.8880001
0.53056955 -0.62216365 1.8855001
0.55388397 -0.61582255 1.887167
0.57175535 -0.60149986 1.8880001
0.60546583 -0.60348284 1.8880001
0.65355277 -0.60563105 1.8880001
0.71717292 -0.60976225 1.8880001
0.73092532 -0.61075604 1.8876672
-0.8635481 -0.58326489 1.8784759
-0.61471963 -0.58497518 1.8880001
-0.25354889 -0.5863452 1.8772001
-0.23870519 -0.57223845 1.868
-0.15041697 -0.595128 1.868
-0.13271971 -0.59044755 1.8721669
-0.10760675 -0.57860512 1.8771667
0.17408775 -0.57509738 1.8865716
0.55825651 -0.59306949 1.8822858
0.59081835 -0.59166211 1.8830001
0.61077398 -0.5975613 1.886
0.64826512 -0.59464639 1.8872311
0.67880481 -0.58648354 1.8876973
0.6990875 -0.58111936 1.8880002
0.73619103 -0.58605951 1.8870325
0.75187486 -0.58111942 1.8880002
-0.86292124 -0.55536711 1.878588
-0.24126095 -0.56845045 1.8880001
-0.22329412 -0.55451697 1.8769792
-0.094364792 -0.56293046 1.8696668
-0.074555732 -0.55201489 1.8765001
-0.054207992 -0.54543239 1.885143
0.16678169 -0.55927491 1.8871895
0.18342441 -0.56679797 1.8880001
0.2658067 -0.56214714 1.8780004
0.27540851 -0.56177908 1.8780003
0.56244147 -0.54591668 1.8880004
0.58387357 -0.54494858 1.8880002
0.60480481 -0.5420109 1.8880001
0.63124436 -0.54366338 1.8880001
0.67629606 -0.54705524 1.8880002
0.70547968 -0.5541721 1.884849
0.73291868 -0.55359036 1.8868239
0.75389451 -0.54494858 1.8880002
-0.86573857 -0.52501696 1.8784758
-0.2133463 -0.53885067 1.8846668
-0.19357657 -0.52656925 1.8796661
-0.17257164 -0.51597798 1.8718097
-0.064090706 -0.53561521 1.868
-0.046277829 -0.52793586 1.8744866
-0.019712515 -0.51486635 1.8780001
0.118978 -0.51391888 1.8880001
0.13538472 -0.51580733 1.8880005
0.16713576 -0.51509917 1.8880005
0.1948477 -0.52374035 1.8876671
0.22293352 -0.51316768 1.8880004
0.25778565 -0.51424932 1.8880004
0.27100545 -0.51391888 1.8880001
0.5365026 -0.51557136 1.8880002
0.56071013 -0.52821714 1.885949
0.58310735 -0.52407819 1.8774023
0.61393392 -0.52283359 1.8857418
0.64360023 -0.52239019 1.8873106
0.67066735 -0.5261758 1.8875004
0.70740914 -0.52522326 1.8834347
0.73851681 -0.52754968 1.8852727
0.75959766 -0.52441305 1.876714
-0.86650586 -0.49657455 1.8813334
-0.18672937 -0.50896144 1.8880001
-0.16094534 -0.49816498 1.8783768
-0.13382216 -0.48553932 1.8751796
-0.10769787 -0.48563418 1.8741764
-0.088288218 -0.4823153 1.868
-0.0076415157 -0.50410903 1.8713335
0.01778467 -0.49489281 1.8777057
0.043887377 -0.48708019 1.8859167
0.06279394 -0.48252189 1.8880001
0.11351474 -0.49380097 1.8870914
0.13487788 -0.49738944 1.8877187
0.19410191 -0.48989451 1.8880004
0.22631013 -0.49566993 1.8870004
0.25181013 -0.49724877 1.885931
0.27265793 -0.50896144 1.8880001
0.53382772 -0.49512157 1.8840002
0.55545545 -0.49529636 1.8868574
0.58288568 -0.50009662 1.8829999
0.61369187 -0.499798 1.8863606
0.6479063 -0.49826661 1.8861357
0.67317736 -0.49615628 1.8803376
0.70037192 -0.49595633 1.8855926
0.73621112 -0.49633089 1.8829203
0.76348329 -0.49551859 1.8770119
0.78629565 -0.49218571 1.8803531
-0.87117147 -0.45037919 1.8780001
-0.86441678 -0.4664607 1.8792499
-0.20160161 -0.4626922 1.8880001
-0.13078137 -0.47874486 1.8880002
-0.1022299 -0.47222266 1.8836521
-0.077479862 -0.461256 1.8793331
-0.046602126 -0.45893082 1.8772852
-0.025216391 -0.45561323 1.8742502
0.029429406 -0.47741038 1.868
0.047440495 -0.47556973 1.875778
0.076125972 -0.4722831 1.8805001
0.10618117 -0.46842593 1.8821508
0.13341916 -0.45680851 1.8851432
0.16994774 -0.46894568 1.8873754
0.19421412 -0.47668967 1.8880002
0.22674508 -0.46680158 1.8841761
0.25288159 -0.46494371 1.8846663
0.27871698 -0.45938727 1.8880002
0.53628147 -0.47600788 1.8867503
0.55611104 -0.46704856 1.8858463
0.58308703 -0.46457905 1.8856193
0.61522621 -0.46858817 1.8874235
0.64311135 -0.46851674 1.8831782
0.67576385 -0.47066301 1.8880002
0.69968766 -0.46949911 1.8873482
0.73853582 -0.47123975 1.8775547
0.76683152 -0.47389963 1.8843044
0.78677118 -0.47393137 1.8843161
-0.87241548 -0.438584 1.8791112
-0.8652674 -0.43390855 1.8791623
-0.078905545 -0.44864619 1.8880002
-0.040760983 -0.44837078 1.8880002
-0.012702585 -0.44397077 1.8846668
0.012095446 -0.42708558 1.8752912
0.037191764 -0.42312074 1.8698183
0.13688631 -0.4451279 1.8706669
0.16422127 -0.44271612 1.878
0.19472255 -0.42700794 1.8815297
0.23299858 -0.44947243 1.8880001
0.25845373 -0.44649577 1.8844708
0.2769233 -0.44674009 1.8857781
0.69073337 -0.44286254 1.8880001
0.74619895 -0.42509148 1.868
0.75959331 -0.43125421 1.8837147
0.78885591 -0.43047503 1.884429
-0.87117147 -0.41092995 1.8780001
-0.86644989 -0.40742731 1.8790523
-0.068853006 -0.40595734 1.8880002
0.015024016 -0.40617275 1.8866522
0.043614052 -0.40484416 1.8801425
0.20213896 -0.40703809 1.8789089
0.32757694 -0.41492105 1.8713335
-0.86540997 -0.37595597 1.880258
0.014872251 -0.37511122 1.8880002
0.046017963 -0.37539747 1.8858414
0.073788457 -0.37136343 1.8794701
0.099784747 -0.36390024 1.875826
0.12821014 -0.36326206 1.8780001
0.20398229 -0.37189004 1.886462
0.2246182 -0.37558338 1.8880005
-0.86401016 -0.34403402 1.8792901
0.046161368 -0.34420431 1.8805972
0.075427532 -0.34486756 1.8819996
0.10604078 -0.34481242 1.8827496
0.13528249 -0.34396881 1.8832874
0.16551946 -0.34431574 1.885273
0.19421847 -0.34454721 1.8855866
-0.87307239 -0.30083394 1.868
-0.86422241 -0.31338155 1.8760002
-0.87345821 -0.28770253 1.8726156
-0.86714572 -0.28492042 1.8796664
-0.87117147 -0.26299515 1.8780001
-0.8664729 -0.25642854 1.8775235
-0.87117147 -0.22683333 1.8780001
-0.86589515 -0.22461541 1.8789088
-0.63222349 -0.23257379 1.8713335
-0.61531866 -0.2266116 1.8679985
-0.86439848 -0.19364482 1.8797946
-0.61188638 -0.20150967 1.868
-0.58625156 -0.19868769 1.8686045
-0.559003 -0.19853172 1.868
-0.53063756 -0.19801269 1.868
0.13436456 -0.20318183 1.868
0.16535729 -0.19689694 1.8704983
0.19411674 -0.19377126 1.8778681
0.70064819 -0.18549003 1.8880004
-0.86511976 -0.16772825 1.8802223
-0.63664716 -0.15359043 1.875778
-0.61896116 -0.15286767 1.8694288
-0.55246317 -0.15493257 1.868
-0.53626919 -0.15368691 1.868
-0.50029993 -0.15041697 1.868
-0.01547769 -0.17723042 1.8680001
0.1634967 -0.17984638 1.868
0.20053381 -0.17752175 1.8780001
0.61332512 -0.16328008 1.8845079
0.6442126 -0.16467802 1.8840001
0.67164713 -0.16650222 1.8803185
0.69805157 -0.17421779 1.8880005
-0.85813719 -0.13385068 1.8797648
-0.73204517 -0.12393542 1.8880001
-0.6775136 -0.13880767 1.8880001
-0.63454932 -0.1487225 1.8880002
-0.61657363 -0.14727075 1.8835558
-0.58368605 -0.14692065 1.8791114
-0.55258113 -0.13725619 1.8769997
-0.50029993 -0.14714703 1.868
-0.31107974 -0.13101538 1.8680001
-0.097280547 -0.12997989 1.868
-0.088288218 -0.13079737 1.868
0.61534935 -0.1342707 1.8789719
0.64316326 -0.13485371 1.8748537
-0.85257262 -0.10329071 1.8783072
-0.72697479 -0.10174158 1.8842498
-0.70920515 -0.094473332 1.8826669
-0.66264135 -0.09584339 1.8880001
-0.65768397 -0.099148333 1.8880002
-0.61823118 -0.097908974 1.8880004
-0.55544424 -0.10523602 1.8823751
-0.40874177 -0.094828092 1.868
0.23325531 -0.11553767 1.868
0.25014997 -0.1144477 1.868
0.760526 -0.099963687 1.876055
0.85563278 -0.094010614 1.868
0.87634236 -0.091558158 1.868
-0.86090446 -0.077282831 1.8785995
-0.72821611 -0.075155601 1.8753908
-0.71220517 -0.076459892 1.883932
-0.66725636 -0.07099504 1.8861822
-0.64549851 -0.070864871 1.8874741
-0.61991322 -0.072866172 1.8880004
-0.59819496 -0.06279394 1.8880001
-0.55720806 -0.078116074 1.8786252
0.64417714 -0.075208507 1.8679979
0.67555028 -0.07746847 1.8687983
0.70674068 -0.075124457 1.8700237
0.73553866 -0.075394854 1.8706909
0.76388997 -0.075157762 1.8722022
0.7859301 -0.068409055 1.8737143
0.81584859 -0.075208485 1.868
0.85894167 -0.083500125 1.8680001
0.87593359 -0.085427031 1.868
-0.86134893 -0.04473104 1.8796667
-0.72827482 -0.046224471 1.8775648
-0.70847738 -0.042992283 1.8822182
-0.67216241 -0.044387862 1.8813329
-0.64620715 -0.046044078 1.885949
-0.61371881 -0.044808816 1.8875459
-0.59635895 -0.04737087 1.8880002
-0.55982459 -0.04389492 1.8785884
0.34988296 -0.032699343 1.868
0.67339772 -0.043065723 1.8679991
0.70402175 -0.049764544 1.8682703
0.73698497 -0.05292964 1.8707029
0.76987875 -0.047044829 1.868256
0.78728902 -0.049413312 1.870857
0.83448714 -0.041201171 1.868
0.92212141 -0.040874176 1.868
-0.86048609 -0.018643897 1.8788334
-0.72799391 -0.016069222 1.8758714
-0.70441139 -0.016881896 1.8801508
-0.67317539 -0.016362302 1.8834763
-0.64457142 -0.016549228 1.8849446
-0.61404896 -0.016166091 1.8814485
-0.58684868 -0.015595617 1.8868238
-0.56403917 -0.019463461 1.8733336
0.38748717 -0.021254571 1.868
0.47152448 -0.026159471 1.868
0.51433349 -0.016622167 1.868
0.6208204 -0.026393037 1.8680001
-0.86150753 0.013864839 1.8787146
-0.72668749 0.013199748 1.8770695
-0.70501119 0.015481023 1.8782071
-0.67378926 0.014307692 1.8759075
-0.64466095 0.015135446 1.8774743
-0.61453336 0.014681557 1.8783338
-0.5874998 0.015024404 1.8859781
-0.56320649 0.015374864 1.8736248
0.6163826 0.026159473 1.868
0.76238614 0.010824788 1.871478
0.78151423 0.014714704 1.868
-0.85754055 0.047281291 1.8785405
-0.72478092 0.044634607 1.868
-0.70449835 0.045878109 1.8719389
-0.67337847 0.045862958 1.8718874
-0.64401317 0.045882173 1.8723328
-0.6134612 0.045933153 1.8740488
-0.58653408 0.045983315 1.8802074
-0.56746161 0.042913318 1.8702223
0.68300748 0.044450678 1.868
0.70130461 0.043470893 1.868
-0.86215991 0.076246411 1.8805579
-0.72855735 0.075607263 1.8679996
-0.70652962 0.074860707 1.8702606
-0.67519844 0.074735165 1.867998
-0.64291823 0.074856222 1.8696077
-0.61470932 0.075278394 1.8734658
-0.58620214 0.075423554 1.8755294
-0.56569862 0.075711548 1.8680001
-0.85795414 0.1045737 1.8782433
-0.72374535 0.10736284 1.868
-0.70809394 0.10402477 1.8679984
-0.67281365 0.10290381 1.8679984
-0.64417708 0.10463789 1.8679979
-0.6147477 0.10463788 1.8679979
-0.58547878 0.10444096 1.8681229
-0.56896853 0.093193129 1.868
-0.85798848 0.13236246 1.8769287
-0.72669482 0.12810449 1.868
-0.71180522 0.12514931 1.868
-0.66543156 0.12698244 1.868
-0.6441772 0.13146161 1.8679984
-0.61575377 0.13130048 1.8679998
-0.58702737 0.128122 1.8679994
-0.63400388 0.15441355 1.868
-0.61779451 0.15874042 1.8679994
-0.60493779 0.20600586 1.868
-0.60493779 0.21254572 1.868
-0.86284184 0.28370258 1.8827997
-0.72908115 0.29338112 1.8691112
-0.7084313 0.29527506 1.868
-0.6723122 0.29175776 1.8684998
-0.64428252 0.29323921 1.868
-0.61815977 0.29429406 1.868
-0.58856779 0.29489973 1.8692501
-0.72942668 0.31380415 1.8682214
-0.70520604 0.31425628 1.868688
-0.67630172 0.31477684 1.8750927
-0.64421421 0.31387764 1.8761579
-0.61446607 0.31326976 1.8736707
-0.59047711 0.31287888 1.8693886
-0.73057598 0.34479645 1.8679993
-0.70440453 0.3400732 1.8679994
-0.67499709 0.34463763 1.8743955
-0.64452803 0.34443536 1.8786892
-0.61496031 0.35021189 1.8775772
-0.59236038 0.34620783 1.8805712
-0.73083031 0.36296269 1.868
-0.69523829 0.37050873 1.8680001
-0.6734916 0.37499204 1.8708222
-0.64383483 0.37764192 1.875307
-0.6160664 0.3766062 1.8738564
-0.59598875 0.3691065 1.8693335
-0.73028535 0.40656182 1.868
-0.69996023 0.40896726 1.8700001
-0.67884588 0.41113994 1.8703076
-0.64240175 0.40521646 1.8689522
-0.61688989 0.4104532 1.8701875
-0.59673208 0.41275275 1.8713335
-0.69402295 0.42857584 1.8823752
-0.67403179 0.43525568 1.8820742
-0.64334339 0.43479034 1.8820245
-0.614066 0.43432999 1.882103
-0.59691447 0.4397262 1.8805002
-0.14300361 0.42736712 1.8780001
-0.6946606 0.46510047 1.8760952
-0.67558742 0.46518683 1.8811874
-0.6441285 0.46470061 1.8842503
-0.61353499 0.46310925 1.8758076
-0.5953058 0.4622044 1.8763996
-0.67127919 0.4830265 1.8867502
-0.64281166 0.48252189 1.8880001
-0.79212606 0.53501529 1.882
-0.77005213 0.53584158 1.8880005
-0.8429414 0.56648743 1.8737146
-0.83323383 0.56536329 1.8800001
-0.79565251 0.55386513 1.8841333
-0.7704075 0.55602586 1.8837334
-0.15144014 0.56645572 1.8705001
-0.13362713 0.56464982 1.8773938
-0.10578231 0.56415439 1.8732375
-0.074793167 0.56500244 1.8765711
-0.046254516 0.56466508 1.8820001
-0.024320051 0.56412816 1.8780001
-0.8438561 0.58240443 1.8809414
-0.82808077 0.59068811 1.8846667
-0.79422432 0.58772659 1.8836895
-0.76650411 0.58475614 1.8789086
-0.2202059 0.5982964 1.878
-0.18868302 0.59175754 1.8825161
-0.16547517 0.58201194 1.8801562
-0.13651524 0.57649261 1.8731513
-0.10040737 0.57445967 1.8692501
-0.075993024 0.57637572 1.8711426
-0.04601543 0.58503771 1.880024
-0.023115357 0.58466429 1.8867505
0.079888634 0.59535921 1.8860004
0.093144119 0.59721822 1.8780001
-0.82483006 0.60528189 1.8788335
-0.79318392 0.60791028 1.8777431
-0.76487261 0.61529237 1.8770524
-0.74691743 0.6279394 1.8880001
-0.24197513 0.60493779 1.868
-0.22180718 0.60409385 1.8759309
-0.20272288 0.60487008 1.8789092
-0.063354969 0.61842626 1.868
-0.046092547 0.61504036 1.8778546
-0.023012208 0.60896665 1.8880004
0.025494283 0.62357605 1.8827368
0.047798242 0.62006819 1.8831722
0.075970121 0.61480933 1.8812562
0.10493095 0.61592829 1.880051
0.1317904 0.6201908 1.8770905
0.15259229 0.626818 1.8813336
-0.84364301 0.65562177 1.868
-0.82620335 0.6550768 1.868
-0.75932062 0.64185739 1.8757578
-0.74870121 0.64182878 1.8780001
-0.25623679 0.64992183 1.8790001
-0.042059511 0.63741624 1.880162
-0.021957837 0.65317637 1.8825836
0.014242637 0.6446985 1.8779998
0.042544898 0.64020151 1.8722306
0.081952423 0.64067751 1.872857
0.10469044 0.64288622 1.8731209
0.13462386 0.64471656 1.8774047
0.16098301 0.64808542 1.8779993
-0.84364301 0.66216165 1.868
-0.8216821 0.67773515 1.8831853
-0.79584765 0.68151766 1.8779999
-0.75368249 0.6766277 1.8751431
-0.74917567 0.67447263 1.8730003
-0.25473139 0.66278696 1.8800001
-0.011397288 0.66507584 1.8779997
0 0.66052669 1.868
0.09286613 0.66445065 1.868
0.13722457 0.67374909 1.8699985
0.16281755 0.67481411 1.8790138
-0.81267679 0.69390297 1.8846668
-0.80023462 0.69276512 1.8791112
-0.75231814 0.70500743 1.8750834
-0.74900484 0.70595628 1.875778
0.14188193 0.70561111 1.8714616
0.15857601 0.70275432 1.8812498
-0.75096732 0.73516673 1.8800002
-0.74917549 0.7360608 1.8730003
0.14339937 0.72844011 1.8745002
0.15513195 0.72700596 1.8830003
-0.75084317 0.7589103 1.8813335
-0.74759817 0.76574689 1.8768001
-0.74651623 0.78538859 1.8820002
-0.86536151 -0.78897899 1.9036156
-0.18670921 -0.78229511 1.899
-0.16323781 -0.78647566 1.9009994
-0.13789146 -0.79518074 1.9072611
0.26733637 -0.79365492 1.909
0.27903235 -0.7958827 1.9090002
0.53801441 -0.79198402 1.909
0.55212384 -0.79606837 1.9090002
0.58503622 -0.79504693 1.9083337
0.60819018 -0.78919929 1.9090003
0.64039212 -0.78469306 1.9090003
0.67095149 -0.79145026 1.9082861
-0.86378723 -0.76518822 1.9043845
-0.22079119 -0.76196039 1.9014996
-0.19469538 -0.76864564 1.9031858
-0.17044337 -0.77618182 1.9055001
0.30660141 -0.76357955 1.909
0.55364496 -0.75705802 1.9090002
0.58713806 -0.75792801 1.907125
0.61162758 -0.76372302 1.909
0.63993645 -0.77494138 1.9090003
0.6738649 -0.76397789 1.9066182
-0.86510366 -0.7350843 1.9044546
-0.36257493 -0.73517501 1.909
-0.35756239 -0.72514987 1.909
-0.21755159 -0.73148215 1.9023335
0.27736148 -0.7218082 1.9090002
0.53371799 -0.73111737 1.9090004
0.55605996 -0.73623353 1.9089987
0.58638316 -0.73631936 1.9084121
0.61455685 -0.73211825 1.9067602
0.64314115 -0.73046553 1.908399
0.66483998 -0.74794501 1.899
-0.87218493 -0.69173288 1.909
-0.86749572 -0.70543021 1.9037369
-0.3501403 -0.7042836 1.9050001
-0.2055319 -0.70231199 1.9015001
0.2815749 -0.70393729 1.9090003
0.5283004 -0.70157748 1.9054813
0.55620545 -0.70495141 1.9083573
0.58583558 -0.70302659 1.9061183
0.61488134 -0.70339853 1.9043744
0.64353395 -0.70504689 1.9074494
0.66165751 -0.70342886 1.909
-0.87129593 -0.68106407 1.9018574
-0.86775208 -0.67197573 1.9058422
-0.33531442 -0.67629224 1.9060001
-0.32624647 -0.66483998 1.8990002
-0.19013646 -0.67064601 1.9026365
0.26733637 -0.67001188 1.9090002
0.28329358 -0.66652912 1.9070003
0.30075341 -0.66165751 1.909
0.53379214 -0.67928106 1.9075718
0.55475742 -0.67465442 1.9080775
0.58236599 -0.67641628 1.9028233
0.61668098 -0.68188435 1.9087296
0.64261878 -0.67542261 1.9079276
0.66834092 -0.66165751 1.909
-0.86504626 -0.64461404 1.9039999
-0.33082876 -0.65664494 1.909
-0.31584671 -0.64226693 1.9034114
-0.18302004 -0.65355903 1.901
-0.17702438 -0.63861978 1.9001111
0.20050228 -0.6315822 1.909
0.22322588 -0.63692898 1.909
0.26455164 -0.63492393 1.9090002
0.2839565 -0.64466482 1.906343
0.30242425 -0.65163243 1.909
0.53208697 -0.64483374 1.9034443
0.55550712 -0.64462548 1.9004292
0.57911772 -0.64436966 1.9037219
0.61865157 -0.64193374 1.8999093
0.64413434 -0.64431554 1.9002334
0.67269313 -0.64323193 1.9044091
0.69777912 -0.63659692 1.9035453
-0.86792874 -0.61539543 1.9054289
-0.30075341 -0.62824047 1.909
-0.28941137 -0.62103719 1.9040002
-0.16068161 -0.6204747 1.9056668
-0.13288322 -0.60396552 1.9047146
0.20050231 -0.61286861 1.909
0.21219824 -0.62824047 1.909
0.26060137 -0.62354106 1.9072355
0.53207111 -0.61166793 1.9035453
0.55033308 -0.61330456 1.8996248
0.58782941 -0.61063701 1.8989993
0.61618549 -0.61647511 1.9017779
0.64444727 -0.61587316 1.8991359
0.67547989 -0.61598718 1.903062
0.7045899 -0.61513031 1.9010513
0.73528391 -0.61192447 1.9004279
0.75293124 -0.61192977 1.899
-0.86433554 -0.58422756 1.903286
-0.27067807 -0.59816515 1.909
-0.25944608 -0.58390135 1.9050002
-0.12299539 -0.59835595 1.899
-0.10563588 -0.58896959 1.9056668
-0.085213467 -0.57143146 1.909
0.17784467 -0.58007288 1.899
0.19349808 -0.58200097 1.907788
0.49457228 -0.58229208 1.909
0.53136331 -0.58471173 1.9042166
0.55510879 -0.58385259 1.9008522
0.58577991 -0.58426338 1.9031568
0.67362714 -0.58405972 1.89982
0.70999986 -0.58812416 1.9000708
0.7342937 -0.58553922 1.8991821
0.75293124 -0.58007282 1.899
-0.86606455 -0.55643427 1.9051541
-0.28822201 -0.55305213 1.909
-0.25310767 -0.55572689 1.908411
-0.23222381 -0.54909712 1.9024613
-0.071452871 -0.56407905 1.9026365
-0.047498941 -0.55136198 1.9046252
0.14675175 -0.55519485 1.9053638
0.48538256 -0.5455333 1.909
0.53455848 -0.5561738 1.9038572
0.55297351 -0.55607861 1.9029654
0.58555716 -0.55866784 1.903716
0.61537111 -0.55528182 1.9040713
0.64514142 -0.55573815 1.9006054
0.67407298 -0.55890864 1.8993453
0.69600439 -0.55659568 1.899
0.7364614 -0.56058097 1.899
0.75778449 -0.56059307 1.8989995
-0.86550033 -0.52326471 1.904
-0.2498748 -0.52299386 1.9051538
-0.22823478 -0.52618605 1.9056664
-0.20136826 -0.51987225 1.9019625
-0.034236785 -0.53599888 1.9018574
-0.018711096 -0.52732098 1.9028463
0.010629514 -0.51835454 1.9076365
0.040518168 -0.51169848 1.9090002
0.060150683 -0.51128078 1.909
0.27258438 -0.52189934 1.899
0.53722107 -0.52747327 1.9043849
0.55508089 -0.52498186 1.8990002
0.62162536 -0.53741229 1.899
0.6468339 -0.53658128 1.899
0.68450809 -0.52882481 1.899
0.70117247 -0.52962273 1.8995125
0.7312392 -0.52490288 1.9048821
-0.86407858 -0.49476305 1.9048619
-0.22616801 -0.49515656 1.9011794
-0.19556792 -0.49516854 1.9028349
-0.17121798 -0.49085537 1.8992379
-0.14294058 -0.48200899 1.899
0.023269398 -0.50594324 1.899
0.047139164 -0.50052154 1.9048619
0.071949363 -0.4953295 1.9078572
0.10154568 -0.49408689 1.9043572
0.26363462 -0.4940272 1.899
0.27258438 -0.50860256 1.899
0.53132147 -0.49467298 1.9030001
0.56209201 -0.49802557 1.899
0.59094048 -0.48801813 1.8989995
0.61399198 -0.48693365 1.8989995
0.64138061 -0.49397606 1.8989992
0.68357635 -0.48533311 1.899
0.70988292 -0.49364367 1.8989998
0.72711337 -0.49574891 1.8989993
0.75592297 -0.4979651 1.899
0.79559183 -0.50084609 1.899
-0.86512566 -0.46315438 1.9042941
-0.16620997 -0.46538776 1.8990008
-0.13570128 -0.46567526 1.9047458
-0.10775324 -0.46037644 1.8996383
-0.0698082 -0.45342088 1.899
-0.053187191 -0.45209116 1.899
0.11856313 -0.47536057 1.899
0.13816391 -0.47175127 1.9024146
0.2592876 -0.4759146 1.899
0.53551334 -0.47039658 1.9025
0.55266213 -0.45797741 1.9019262
0.58582425 -0.45503932 1.902913
0.61559385 -0.4586378 1.9045
0.64402616 -0.45731437 1.9029019
0.67523414 -0.46314433 1.9008185
0.70863771 -0.46061373 1.9000808
0.72781861 -0.46411434 1.9037495
0.77432495 -0.46145275 1.901353
0.7901141 -0.45971528 1.9053885
-0.86535287 -0.43309122 1.9031668
-0.13612059 -0.43574661 1.8996418
-0.10510208 -0.43585837 1.9028268
-0.074572019 -0.43638635 1.9035569
-0.045021802 -0.43460479 1.9027971
-0.017995002 -0.43179274 1.9022262
0.5851441 -0.43234739 1.9089987
0.6150074 -0.43856525 1.9090002
0.64511347 -0.43332589 1.9089985
0.67758614 -0.43457675 1.9062489
0.70400363 -0.43422738 1.9022049
0.73316389 -0.43270877 1.9087
0.76747417 -0.42892647 1.9028631
0.78962868 -0.43416193 1.9065554
-0.87135524 -0.39405215 1.9023335
-0.86644137 -0.40606722 1.9029999
-0.07703279 -0.4053309 1.8990006
-0.04585585 -0.40575397 1.9006673
-0.015347374 -0.40470317 1.9021883
0 -0.41220075 1.899
0.70654845 -0.40862757 1.9084724
0.73488486 -0.40442768 1.9083489
-0.86703628 -0.3738668 1.9027501
-0.015898349 -0.37635717 1.8990005
0.20831653 -0.36621603 1.899
0.37348205 -0.37329647 1.9089983
-0.86557674 -0.34272647 1.9055001
0.16454789 -0.33685225 1.899
0.20942459 -0.35901356 1.899
-0.86741263 -0.31528792 1.9036156
0.16620998 -0.32355547 1.899
0.18615519 -0.32577157 1.899
-0.86622846 -0.28518614 1.9003335
-0.28920537 -0.29751587 1.899
-0.86699212 -0.25333071 1.9052498
-0.86684448 -0.22556278 1.9056667
0.73083293 -0.22662503 1.8995175
0.77176833 -0.23058867 1.8989993
0.78793043 -0.22989002 1.9001534
-0.8656745 -0.19489685 1.9052502
0.56511396 -0.18781728 1.899
0.61940914 -0.18763262 1.8989999
0.73027289 -0.19810602 1.9015001
-0.87218493 -0.16875608 1.909
-0.8675071 -0.16077577 1.9043849
0.62439555 -0.17479751 1.899
0.63159794 -0.17784467 1.899
0.7059769 -0.17618258 1.899
0.7218082 -0.17711034 1.909
-0.85855305 -0.13323756 1.9030002
-0.72775704 -0.13160428 1.9070771
-0.7049427 -0.13191853 1.907792
-0.67418253 -0.13129982 1.9064993
-0.64465451 -0.13422181 1.9070275
-0.61553943 -0.13213435 1.9080126
-0.58337724 -0.13234779 1.9083091
-0.56597191 -0.13390242 1.9030001
-0.84812003 -0.10384202 1.9045
-0.72757494 -0.11277965 1.9004997
-0.70366156 -0.10722471 1.9003847
-0.67709422 -0.10629457 1.9023781
-0.64517152 -0.10512518 1.9014326
-0.61145818 -0.10580953 1.9014193
-0.58459198 -0.10419199 1.9008571
-0.56485832 -0.10867577 1.899
0.78284907 -0.093077593 1.899
-0.85844213 -0.07663703 1.9036151
-0.69880891 -0.076017395 1.9000416
-0.67694926 -0.078806892 1.9006667
-0.6442129 -0.081144564 1.8989996
-0.60993117 -0.079299517 1.9009149
-0.58579475 -0.074671187 1.9040647
-0.56753159 -0.074038997 1.899
0.78617322 -0.089753389 1.899
-0.8623687 -0.047215361 1.9045557
-0.70111275 -0.053382747 1.8989992
-0.68589324 -0.057619464 1.899
-0.63704091 -0.051394686 1.8999091
-0.61615014 -0.050449621 1.899
-0.58584738 -0.046413373 1.9015713
-0.56733012 -0.050971057 1.8989999
-0.86087811 -0.015879204 1.905
-0.65320528 -0.026593598 1.899
-0.58339703 -0.029917797 1.899
-0.86486495 0.014204756 1.9037369
-0.85907924 0.044539724 1.9037369
-0.86016005 0.075407781 1.9019998
-0.85811627 0.10675061 1.9006667
-0.85965347 0.13359421 1.9037824
-0.86215979 0.15037671 1.909
-0.86177695 0.29048291 1.9030001
-0.66816413 0.33906838 1.899
-0.63758153 0.33906838 1.899
-0.61707789 0.34140474 1.8996662
-0.84850365 0.37544724 1.9065001
-0.66483992 0.37895876 1.899
-0.65819156 0.37895876 1.899
-0.67148834 0.44876695 1.899
-0.67148829 0.45652342 1.899
-0.66151571 0.48367107 1.899
-0.78604859 0.53369677 1.9004288
-0.76781076 0.53580701 1.9043336
-0.8443467 0.56843817 1.899
-0.76040685 0.55539143 1.904357
-0.84731793 0.5827328 1.9023334
-0.83597898 0.58605027 1.9036669
-0.75801784 0.58448619 1.9039999
-0.2116413 0.59482348 1.9090002
-0.19619377 0.58723718 1.9006661
-0.17285839 0.57674861 1.899
-0.010361171 0.58642274 1.89993
0.0058181128 0.58664572 1.9041424
0.058826726 0.5971843 1.9023335
0.064820379 0.59523928 1.9035456
-0.84767091 0.60168016 1.899
-0.7562058 0.61271232 1.9030738
-0.74794495 0.62661159 1.899
-0.22143333 0.60190356 1.9035456
-0.20610039 0.60405463 1.8990002
-0.033241998 0.62827373 1.899
-0.012675705 0.61850762 1.9025711
0.0083795497 0.61779493 1.9052157
0.045398545 0.61138618 1.9045881
