# .PCD v0.7 - Point Cloud Data file format
VERSION 0.7
FIELDS x y z
SIZE 4 4 4
TYPE F F F
COUNT 1 1 1
WIDTH 1502
HEIGHT 1
VIEWPOINT 0 0 0 1 0 0 0
POINTS 1502
DATA ascii
0.59666967 0.49383068 1.7450001
0.6048153 0.49637625 1.7450001
0.61336821 0.49668169 1.7450001
0.63841617 0.49790353 1.7450001
0.64452541 0.49790353 1.7450002
0.65368927 0.49637622 1.7450001
0.68729013 0.49484891 1.7450002
0.69492668 0.49484891 1.7450002
0.70561785 0.49484894 1.745
0.71478176 0.49484894 1.745
0.72350925 0.4957217 1.7450001
0.73372042 0.49484894 1.7450001
0.38488248 0.50401276 1.745
0.39360997 0.50314009 1.7450001
0.40397385 0.50286728 1.745
0.41390139 0.50401276 1.7450001
0.42459258 0.50503099 1.7450002
0.43681106 0.50554007 1.7450001
0.59870607 0.50706738 1.7450001
0.60603714 0.50523466 1.7450001
0.61275733 0.50279093 1.7450001
0.62925231 0.50706738 1.7450001
0.63536155 0.50706738 1.7450002
0.64452547 0.50401276 1.745
0.65470749 0.50604916 1.7450002
0.67812628 0.50706738 1.7450001
0.68499917 0.50477642 1.7450001
0.69263572 0.5017218 1.7450001
0.71478176 0.5017218 1.7450001
0.72547293 0.50324911 1.7450001
0.73463678 0.50401282 1.7450001
0.38590071 0.51368576 1.7450001
0.39376867 0.51456505 1.7450002
0.4011738 0.51215839 1.7450002
0.41695601 0.51470393 1.7450001
0.42459258 0.5150094 1.7450001
0.43597794 0.51400965 1.7450002
0.44597492 0.51928586 1.7450002
0.45452785 0.51745313 1.7450001
0.54677749 0.51928586 1.7450002
0.59870607 0.510122 1.7450001
0.6048153 0.51317662 1.745
0.61397922 0.51470393 1.7450001
0.62416124 0.51572216 1.7450001
0.6359725 0.5113439 1.7450001
0.64452547 0.51164937 1.7450001
0.65533412 0.51458639 1.7450004
0.66563016 0.51428735 1.7450002
0.67583531 0.51241297 1.7450001
0.68321729 0.51368576 1.7450001
0.72700024 0.51164931 1.7450001
0.73441863 0.51230395 1.7450001
0.7473644 0.51114023 1.7450002
0.39480999 0.52310413 1.7450001
0.40371931 0.52539515 1.7450001
0.4158105 0.52577692 1.745
0.42535624 0.52615875 1.7450001
0.43579283 0.52437687 1.745
0.44597492 0.52452242 1.7450001
0.62568867 0.52743155 1.7450001
0.63536161 0.52692246 1.7450001
0.64452547 0.52692246 1.7450001
0.65430027 0.52508962 1.7450001
0.66285312 0.5253951 1.7450001
0.72496384 0.52641332 1.7450002
0.73005486 0.5253951 1.7450001
0.38182786 0.53761363 1.7450001
0.42561075 0.53557724 1.7450001
0.43528372 0.53341353 1.745
0.44648403 0.53404993 1.7450001
0.45361146 0.53455901 1.7450001
0.69492668 0.53608632 1.745
0.70409054 0.53761363 1.7450001
0.71478176 0.53532267 1.7450001
0.37648225 0.54677749 1.745
0.38411883 0.54677749 1.745
0.42459255 0.54525018 1.745
0.45445994 0.54474109 1.745
0.70358145 0.5427047 1.7450002
0.72700024 0.54677749 1.7450001
0.7341277 0.54779571 1.7450001
0.80336583 0.54983211 1.7450002
0.40931946 0.55899596 1.7450001
0.4149923 0.55506861 1.7450001
0.42459258 0.55288672 1.7450002
0.45513874 0.5559414 1.745
0.46392077 0.55555952 1.745
0.80447656 0.5556637 1.7450002
0.8155843 0.55543226 1.7450001
0.41237408 0.56357789 1.7450001
0.46201169 0.56434155 1.7450001
0.40626487 0.57121444 1.7450002
-0.062925234 0.6646859 1.7450001
-0.045819342 0.66285312 1.7450002
-0.054983206 0.67690444 1.7450001
0.58644205 0.34695265 1.7540001
0.58767027 0.35370746 1.7540001
0.594118 0.38993791 1.7540001
0.58644205 0.39300829 1.7540001
0.63556808 0.39914906 1.7540001
0.36537489 0.40528983 1.7539999
0.37305084 0.40221941 1.7540001
0.3843089 0.40426636 1.7540001
0.594118 0.40375459 1.7540001
0.63618225 0.40406165 1.7540001
0.35462856 0.41450089 1.7539999
0.36499104 0.41411716 1.7539999
0.38441125 0.41450092 1.7539999
0.39710218 0.41654786 1.7540001
0.40528983 0.41757131 1.7540001
0.41296574 0.41757131 1.7540001
0.60486436 0.41757131 1.7540001
0.64324403 0.41757131 1.7540001
0.69467288 0.41373336 1.7540001
0.70465159 0.41347751 1.7540001
0.71539795 0.41757131 1.7540001
0.72307384 0.41757131 1.7540001
0.34449637 0.42463318 1.7539999
0.35473093 0.42494029 1.7539999
0.36506784 0.42616835 1.7539999
0.37151566 0.42831761 1.7540001
0.38993791 0.42064169 1.7540001
0.39607865 0.42524728 1.7539999
0.40324289 0.42166516 1.7540001
0.58030128 0.42678243 1.7540001
0.59718835 0.42985281 1.7540001
0.60486436 0.42616835 1.7540001
0.64401162 0.42601484 1.7540001
0.66627187 0.42985281 1.7540001
0.6760971 0.42862469 1.7540001
0.68315893 0.42831761 1.7540001
0.70925713 0.4221769 1.7540001
0.71573907 0.42405319 1.7539999
0.72491604 0.42432615 1.7539999
0.73074979 0.42524725 1.7540001
0.04605566 0.43599361 1.7539999
0.05526679 0.43599361 1.7539999
0.33467114 0.43643224 1.7540001
0.34388229 0.43599361 1.7539999
0.35616377 0.43522602 1.7539999
0.36499113 0.43637741 1.7539999
0.37151566 0.43599358 1.7540001
0.49433073 0.4329232 1.7540001
0.5281049 0.43906394 1.7540001
0.5833717 0.43599358 1.7540001
0.59667671 0.43650532 1.7540001
0.60486442 0.43599361 1.7539999
0.61177266 0.43599355 1.7540001
0.62574291 0.43783578 1.7540001
0.63618219 0.43599358 1.7540001
0.64434063 0.43599361 1.7540001
0.65399039 0.43599358 1.7540001
0.66565776 0.43630067 1.7539999
0.67586684 0.43560982 1.7539999
0.68285191 0.43537951 1.7540001
0.71642137 0.43701702 1.7540001
0.72614425 0.43676114 1.7540001
0.73228496 0.43599361 1.7540001
0.04912604 0.4452047 1.7540001
0.054882996 0.44520473 1.7539999
0.30396736 0.44520473 1.7539999
0.31471372 0.44520473 1.7539999
0.32545996 0.44520468 1.7539999
0.33467108 0.44520473 1.7539999
0.34285879 0.44418126 1.7540001
0.35616377 0.44213432 1.7540001
0.36230451 0.44213432 1.7540001
0.38686752 0.44418126 1.7540001
0.39300829 0.4436695 1.7540001
0.53424567 0.44366953 1.7540001
0.54192162 0.4436695 1.7540001
0.56494939 0.4452047 1.7540001
0.58828431 0.44581881 1.7540001
0.59565318 0.44520473 1.7539999
0.6039871 0.44476613 1.7540001
0.61484301 0.44673991 1.7540001
0.6252405 0.44548386 1.7539999
0.63741034 0.44459066 1.7540001
0.64324403 0.44673991 1.7540001
0.6666556 0.44482091 1.7539999
0.67592174 0.446082 1.7540001
0.68346596 0.44643289 1.7540001
0.70362818 0.44725165 1.7540001
0.71642137 0.44418126 1.7540001
0.72460908 0.4452047 1.7540001
0.73197794 0.44459063 1.7540001
0.056801978 0.45441586 1.7540001
0.064477921 0.45441586 1.7539999
0.095620327 0.4535386 1.7540001
0.27545673 0.45573172 1.7540001
0.28592891 0.45403203 1.7539999
0.2947562 0.45441586 1.7539999
0.30396739 0.45441586 1.7539999
0.31471372 0.45441586 1.7539999
0.32545996 0.45479962 1.7539999
0.33428735 0.45441583 1.7539999
0.34234709 0.45748621 1.7540001
0.37612122 0.45748621 1.7540001
0.38584408 0.4554393 1.7540001
0.39403176 0.45646274 1.7540001
0.43599361 0.45441586 1.7539999
0.44213432 0.45441586 1.7540001
0.45441586 0.45595104 1.7540001
0.57518405 0.45543933 1.7540001
0.58529067 0.45364824 1.7539999
0.59603697 0.45403203 1.7539999
0.60486436 0.45748624 1.7540001
0.61561066 0.45441586 1.7540001
0.6248219 0.45441586 1.7539999
0.63710332 0.45441586 1.7540001
0.643902 0.45485449 1.7540001
0.66780704 0.45288065 1.7540001
0.67636031 0.45397723 1.7540001
0.68571758 0.45390412 1.7540001
0.69288182 0.45390412 1.7540001
0.70434457 0.4541088 1.7539999
0.71539789 0.45288065 1.7540001
0.72460908 0.45288065 1.7540001
0.73074979 0.45288065 1.7540001
0.098252073 0.4620918 1.7540001
0.26712283 0.46669734 1.7540001
0.27479875 0.46516207 1.7539998
0.28582421 0.46530169 1.7539999
0.29447708 0.46530169 1.7539999
0.30396739 0.46516213 1.7539999
0.31471369 0.4651621 1.7539998
0.32545996 0.4651621 1.7539999
0.33495021 0.46474347 1.7539999
0.35462856 0.46823257 1.7539999
0.36230451 0.46823251 1.7540001
0.37458605 0.4605566 1.7540001
0.38482064 0.4605566 1.7540001
0.39505523 0.4615801 1.7540001
0.43599361 0.46567386 1.7539999
0.44489765 0.46608326 1.7539999
0.55573833 0.46260354 1.7540001
0.56494939 0.4620918 1.7540001
0.62451482 0.46301284 1.7539999
0.6386385 0.4620918 1.7540001
0.64273232 0.46260354 1.7540001
0.66831875 0.46260354 1.7540001
0.67625058 0.46362698 1.7539999
0.68264723 0.46567389 1.7540001
0.69288182 0.46260354 1.7540001
0.70465159 0.46209174 1.7539999
0.716012 0.46485516 1.7540001
0.72422516 0.46708113 1.7539999
0.73074979 0.46823251 1.7540001
0.27940434 0.47437328 1.7540001
0.284931 0.47406626 1.7540001
0.29373276 0.47590849 1.7540001
0.30484462 0.47546989 1.7540001
0.31663269 0.47590849 1.7539999
0.32545996 0.47590849 1.7539999
0.33697391 0.47667608 1.7540001
0.34234709 0.47590849 1.7540001
0.35386097 0.4751409 1.7539999
0.36499107 0.47629228 1.7539999
0.37458602 0.47590849 1.7540001
0.38993791 0.47897884 1.7540001
0.43687087 0.47634712 1.7540001
0.51275301 0.47897884 1.7540001
0.56648463 0.47590849 1.7540001
0.57416058 0.47897884 1.7540001
0.63249773 0.47897884 1.7540001
0.71846837 0.47590849 1.7540001
0.72373176 0.47634712 1.7540001
0.30458143 0.48511964 1.7540001
0.31513238 0.48539874 1.7539999
0.32545999 0.48511961 1.7539999
0.33467108 0.48511961 1.7539999
0.34234709 0.48511958 1.7540001
0.36353263 0.48573366 1.7540001
0.38917032 0.48588717 1.7540001
0.39569485 0.48473582 1.7539999
0.43660766 0.48327738 1.7540001
0.56679165 0.4845055 1.7540001
0.57416058 0.48511961 1.7539999
0.63249773 0.48204923 1.7540001
0.66688597 0.48696184 1.7540001
0.67241263 0.48819 1.7540001
0.71232754 0.4835844 1.7540001
0.28554508 0.49740112 1.7540001
0.32546002 0.49476939 1.7540001
0.38789099 0.49535418 1.7540001
0.40426633 0.49637768 1.7540001
0.43752876 0.49433073 1.7540001
0.55880868 0.49433073 1.7540001
0.60547847 0.49248853 1.7540001
0.61407548 0.49279556 1.7540001
0.62226313 0.493819 1.7540001
0.66422498 0.49228382 1.7540001
0.68469417 0.493819 1.7540001
0.33467108 0.50507712 1.7539999
0.38686752 0.50047147 1.7540001
0.4052898 0.50047147 1.7540001
0.4233709 0.50456536 1.7539999
0.58874488 0.5027743 1.7540001
0.61714584 0.50814748 1.7540001
0.62524056 0.50689143 1.7539999
0.63556814 0.50507712 1.7540001
0.65706074 0.50354189 1.7540001
0.66473663 0.50584471 1.7539999
0.67520398 0.50549585 1.7539999
0.68469417 0.50354189 1.7539999
0.69697565 0.50661224 1.7540001
0.42371207 0.51428819 1.7540001
0.64477921 0.51889384 1.7540001
0.67701817 0.51275301 1.7540001
0.65091997 0.52349931 1.7540001
-0.27493832 0.54680634 1.7539999
-0.27633396 0.55266792 1.7540001
0.89806432 0.25614893 1.7630001
0.11727301 0.34873289 1.7630001
0.45134678 0.34641832 1.7630001
0.49378109 0.34718984 1.7630001
0.5863651 0.3456468 1.7630002
0.014196205 0.35613957 1.7630001
0.45057523 0.35181901 1.7630001
0.58513063 0.35552236 1.7630001
0.59613788 0.35490513 1.7630002
0.60179567 0.35490516 1.7630001
0.013116061 0.36339203 1.7630001
0.24689054 0.36416355 1.7630001
0.46909207 0.36416358 1.7630002
0.47320685 0.36519226 1.7630002
0.49378109 0.36262047 1.7630001
0.58636504 0.36107743 1.7630001
0.012344527 0.37496501 1.7630001
0.18516791 0.37959421 1.7630001
0.4351446 0.37959421 1.7630002
0.44363144 0.37882268 1.7630001
0.68820739 0.37959421 1.7630001
0.69746578 0.37959421 1.7630001
0.0015430659 0.38576648 1.7630002
0.18516791 0.38268033 1.7630001
0.27157959 0.38730955 1.7630001
0.4351446 0.38268036 1.7630002
0.44563743 0.38453203 1.7630001
0.45366138 0.38782391 1.7630002
0.54470229 0.38730955 1.7630001
0.57556355 0.3888526 1.7630001
0.58482194 0.38628083 1.7630002
0.5962407 0.38761815 1.7630001
0.6295709 0.38576645 1.7630001
0.66891909 0.38576648 1.7630001
0.67431974 0.38730955 1.7630001
0.68820739 0.38576648 1.7630002
0.6912936 0.38576648 1.7630002
0.2646358 0.39502487 1.7630001
0.38576648 0.39811099 1.7630001
0.44748911 0.39193875 1.7630001
0.45880494 0.39296746 1.7630002
0.46291977 0.39348179 1.7630001
0.47526428 0.39193875 1.7630001
0.48760882 0.39811099 1.7630001
0.49378109 0.39733946 1.7630001
0.50303948 0.39811099 1.7630001
0.57490224 0.39502487 1.7630002
0.58366472 0.39618212 1.7630002
0.5951826 0.3959066 1.7630002
0.6041103 0.39733946 1.7630001
0.6280278 0.39193875 1.7630001
0.63535738 0.3954106 1.7630002
0.64345849 0.39811099 1.7630001
0.66969061 0.39193875 1.7630001
0.19494066 0.40428329 1.7630002
0.20280296 0.40472418 1.7630002
0.26540732 0.40428329 1.7630002
0.49501553 0.40428329 1.7630001
0.50303948 0.40428329 1.7630002
0.5857479 0.40397468 1.7630004
0.59438896 0.40304884 1.7630001
0.60488176 0.40472418 1.7630002
0.61105406 0.40428326 1.7630001
0.62648475 0.40428326 1.7630001
0.63728619 0.40428329 1.7630001
0.64588332 0.40384242 1.7630002
0.26540732 0.41045552 1.7630001
0.49763876 0.41739932 1.7630001
0.50303948 0.41817087 1.7630001
0.5740205 0.41662779 1.7630001
0.5866456 0.41550556 1.7630004
0.59459472 0.41354164 1.7630002
0.60426462 0.41230717 1.7630001
0.63882935 0.41662782 1.7630002
0.6446929 0.41415888 1.7630004
0.65271688 0.41817084 1.7630001
0.68556219 0.41750959 1.7630002
0.69349796 0.41574606 1.7630002
0.70363808 0.41662779 1.7630002
0.20491914 0.42650342 1.7630001
0.49841028 0.42588615 1.7630002
0.59562343 0.42588618 1.7630002
0.60488176 0.42640054 1.7630002
0.61208278 0.42794365 1.7630002
0.62442732 0.42485747 1.7630002
0.63636035 0.42526895 1.7630001
0.64448714 0.42485747 1.7630002
0.65302551 0.42526898 1.7630001
0.6851213 0.42434311 1.7630002
0.69437969 0.42588615 1.7630002
0.70476031 0.42560562 1.7630004
0.3348453 0.43437305 1.7630001
0.48606575 0.4336015 1.7630001
0.65487713 0.43391013 1.7630001
0.6622839 0.43514457 1.7630001
0.69437969 0.4351446 1.7630002
0.70363802 0.4351446 1.7630002
0.27404851 0.4450202 1.7630001
0.45613027 0.44625464 1.7630001
0.59253728 0.44131684 1.7630001
0.65734607 0.44131684 1.7630001
0.67689157 0.44337425 1.7630002
0.68820739 0.44440299 1.7630002
0.70569545 0.44337428 1.7630002
0.71510082 0.44484386 1.7630002
0.26509872 0.45613033 1.7630004
0.27422485 0.45322052 1.7630002
0.28186673 0.45469007 1.7630002
0.29781172 0.45057523 1.7630001
0.68615001 0.45777625 1.7630002
0.71659988 0.45613027 1.7630001
0.72524101 0.45571879 1.7630002
0.26502156 0.4656201 1.7630002
-0.070981033 0.48760882 1.7630001
-0.00661314 0.48540449 1.7630002
-0.064465865 0.49515268 1.7630002
-0.057864971 0.49686721 1.7630001
-0.057607796 0.5040682 1.7630002
0.90264893 0.26055846 1.7720001
0.53972822 0.29778108 1.7720001
0.098484889 0.30476031 1.7720001
0.10546414 0.30398485 1.7720002
0.1147698 0.30398485 1.7720002
0.12368772 0.30437258 1.7720002
0.13544905 0.30553579 1.7720002
0.14268677 0.30398485 1.7720001
0.51258671 0.30476034 1.7720001
0.54283011 0.30088297 1.7720001
0.10546415 0.31484145 1.7720001
0.11565606 0.31373367 1.7720003
0.12318921 0.31284738 1.7720003
0.14268677 0.31018862 1.7720001
0.49836975 0.31535843 1.7720002
0.50638294 0.31445369 1.7720002
0.51284522 0.31380749 1.7720002
0.10546414 0.32569808 1.7720003
0.48699614 0.32879993 1.7720001
0.50405657 0.32724899 1.7720001
0.51181126 0.32259616 1.7720001
0.56764519 0.32879993 1.7720001
0.57074708 0.32569805 1.7720001
0.49862823 0.33422825 1.7720001
0.50374639 0.33438334 1.7720002
0.5159471 0.33707163 1.7720001
0.52215093 0.3360377 1.7720001
0.55833954 0.33345276 1.7720001
0.56506032 0.33396977 1.7720002
0.15509431 0.34741127 1.7720001
0.28227165 0.34120747 1.7720001
0.44977352 0.34275842 1.7720001
0.49940369 0.3458603 1.7720001
0.50516438 0.34519565 1.7720003
0.5153563 0.34519565 1.7720003
0.52383107 0.34469712 1.7720002
0.53145653 0.34534335 1.7720001
0.59556216 0.3458603 1.7720001
0.21403015 0.35904336 1.7720001
0.29157731 0.3520641 1.7720001
0.46567068 0.35361505 1.7720002
0.47148672 0.35981882 1.7720001
0.4828603 0.35671696 1.7720001
0.49940369 0.35051316 1.7720001
0.50498712 0.35175392 1.7720002
0.5162425 0.35361511 1.7720003
0.52450079 0.354743 1.7720001
0.53352451 0.35516602 1.7720001
0.58349925 0.35464901 1.7720002
0.59711313 0.35051316 1.7720001
0.60486788 0.35361505 1.7720001
0.6126225 0.35516599 1.7720001
0.62746733 0.3558307 1.7720003
0.63433576 0.35749239 1.7720001
0.64364135 0.35981882 1.7720001
0.65604895 0.35671696 1.7720002
0.66070175 0.35516596 1.7720001
0.18611318 0.36757356 1.7720002
0.19541883 0.36757356 1.7720002
0.46838483 0.3629207 1.7720001
0.48389429 0.36602259 1.7720002
0.4937169 0.36550564 1.7720002
0.50560749 0.3675735 1.7720002
0.51491314 0.36912447 1.7720001
0.52576971 0.3629207 1.7720001
0.58439541 0.36602259 1.7720002
0.59517437 0.36641032 1.7720002
0.6162414 0.36705655 1.7720001
0.62813199 0.36602259 1.7720002
0.63588667 0.36557949 1.7720003
0.64395159 0.36478183 1.7720002
0.65387762 0.36416146 1.7720002
0.47644973 0.37470791 1.7720002
0.48337728 0.37429428 1.7720002
0.49382028 0.37470788 1.7720002
0.58780742 0.37532827 1.7720002
0.59517443 0.37532824 1.7720002
0.61520737 0.3763622 1.7720002
0.62480855 0.37532824 1.7720003
0.63588667 0.37532824 1.7720002
0.64415842 0.37481126 1.7720002
0.67621118 0.37532824 1.7720001
0.68241495 0.37687919 1.7720001
0.69275463 0.3773962 1.7720001
0.70102632 0.37843013 1.7720001
0.22519696 0.38432372 1.7720002
0.23264149 0.3846339 1.7720001
0.24815091 0.3846339 1.7720001
0.2512528 0.3846339 1.7720001
0.463732 0.3846339 1.7720002
0.58404088 0.3846339 1.7720003
0.61727536 0.38153201 1.7720001
0.62534028 0.38463393 1.7720002
0.6362744 0.3846339 1.7720002
0.64209044 0.3846339 1.7720001
0.66380364 0.38773578 1.7720001
0.67776215 0.3846339 1.7720001
0.68551683 0.38463393 1.7720002
0.69714898 0.38385844 1.7720001
0.70361125 0.38515088 1.7720002
0.24815091 0.39393958 1.7720001
0.25435469 0.39438269 1.7720003
0.46760938 0.39316407 1.7720001
0.47303766 0.3931641 1.7720001
0.54548889 0.39482582 1.7720003
0.55213577 0.39393955 1.7720001
0.6079697 0.39704144 1.7720001
0.62347913 0.39355183 1.7720002
0.63743758 0.39083767 1.7720001
0.67569423 0.39600748 1.7720002
0.68551683 0.39393955 1.7720002
-0.28744146 0.40117729 1.7720001
0.63472348 0.40595937 1.7720002
0.68520665 0.40386555 1.7720002
-0.18301129 0.41875464 1.7720001
-0.19231695 0.42806029 1.7720001
-0.18572545 0.42534617 1.7720002
-0.17680752 0.42185652 1.7720001
-0.19231695 0.43271312 1.7720001
-0.1855962 0.43374711 1.7720002
-0.024427351 0.45636499 1.7720002
-0.0066468995 0.46439672 1.7720003
-0.013958488 0.49707729 1.7720001
0.17354867 0.21563683 1.7810001
0.18238199 0.21511722 1.7810001
0.19329372 0.24317598 1.7810001
0.9041158 0.25876418 1.7810001
0.2169878 0.265623 1.7810001
0.23070541 0.26655829 1.7810001
0.86358649 0.2681171 1.7810001
0.90723348 0.26655829 1.7810001
0.21667604 0.2743524 1.7810001
0.23070541 0.27123475 1.7810001
0.58611643 0.27123475 1.7810001
0.59391057 0.27123475 1.7810001
0.10911743 0.2899406 1.7810001
0.15899968 0.28682294 1.7810001
0.16648202 0.28682294 1.7810001
0.18082318 0.28682297 1.7810001
0.23070541 0.28682294 1.7810001
0.56273413 0.28214648 1.7810001
0.10662331 0.29492882 1.7810001
0.13281149 0.29742295 1.7810001
0.1449703 0.29929352 1.7810001
0.22758777 0.29773468 1.7810001
0.54636651 0.29773468 1.7810001
0.55182242 0.29773468 1.7810001
0.57988119 0.29929352 1.7810001
0.58299881 0.29929352 1.7810001
0.12782326 0.30241114 1.7810001
0.5253225 0.30552879 1.7810001
0.5362342 0.30552879 1.7810001
0.54558712 0.30591851 1.7810001
0.55390084 0.30500919 1.7810001
0.58673996 0.30739936 1.7810001
0.16419575 0.31540132 1.7810001
0.43750891 0.31696016 1.7810001
0.44582266 0.31799936 1.7810001
0.50505781 0.31488171 1.7810001
0.5362342 0.31488174 1.7810001
0.54558712 0.31488171 1.7810001
0.57715327 0.31449199 1.7810001
0.44582263 0.32423463 1.7810001
0.5257476 0.32423463 1.7810001
0.53534341 0.32378927 1.7810003
0.54558718 0.32111698 1.7810001
0.55583078 0.32378927 1.7810003
0.56429291 0.32423463 1.7810001
0.5746851 0.32319537 1.7810001
0.50817543 0.33982283 1.7810001
0.55597925 0.33566597 1.7810001
0.56377339 0.33462676 1.7810001
0.50505781 0.34294048 1.7810001
-0.042088151 0.3678816 1.7810001
-0.046141084 0.37162277 1.7810001
-0.28682294 0.39282274 1.7810001
0.85228348 0.10183534 1.7900001
-0.025067162 0.134736 1.7900002
0.26007181 0.13630269 1.7900001
0.20262623 0.14622512 1.7900002
0.20367068 0.15196967 1.7900002
0.28435561 0.1590198 1.7900001
0.28435561 0.16450325 1.7900001
0.29297245 0.16763663 1.7900001
0.30456603 0.17359011 1.7900002
0.25067163 0.18643701 1.7900001
0.36660725 0.1958372 1.7900001
0.40577468 0.1958372 1.7900001
0.41539869 0.19606103 1.7900002
0.17547014 0.20769936 1.7900002
0.18447864 0.20719576 1.7900001
0.27636543 0.20555075 1.7900002
0.28648186 0.2054612 1.7900002
0.29453915 0.20523737 1.7900003
0.30080596 0.20053729 1.7900001
0.36660725 0.20053729 1.7900001
0.40525249 0.20506331 1.7900001
0.41548821 0.20492409 1.7900006
0.078334883 0.21620429 1.7900002
0.081468277 0.21620429 1.7900002
0.18531795 0.2162043 1.7900002
0.19270381 0.21463758 1.7900001
0.29558361 0.21672653 1.7900002
0.30393934 0.21620427 1.7900001
0.41548821 0.21683095 1.7900002
0.078334883 0.22247106 1.7900001
0.41830826 0.22247106 1.7900001
0.42300835 0.22247106 1.7900001
0.81781614 0.22873785 1.7900001
0.15405861 0.2370936 1.7900002
0.19427051 0.23343796 1.7900001
0.22403775 0.23343796 1.7900001
0.81703281 0.23422129 1.7900001
0.18800372 0.24440482 1.7900001
0.37287402 0.2569384 1.7900001
0.82094955 0.26633859 1.7900001
0.86586159 0.26738307 1.7900002
0.89928442 0.26477188 1.7900001
0.90526646 0.26519924 1.7900003
-0.35720706 0.28357226 1.7900001
0.21620429 0.28513896 1.7900001
-0.28513896 0.38854101 1.7900001
-0.072068088 0.38227421 1.7900001
0.10449961 0.056999788 1.8090003
0.10449961 0.060166441 1.8090001
0.13722172 0.068610862 1.8090003
0.14611851 0.067404516 1.8090003
0.19949925 0.069666408 1.8090001
0.094999641 0.075999714 1.8090001
0.13933282 0.079166368 1.8090001
0.14566612 0.075999722 1.8090003
0.15326609 0.075366385 1.8090003
0.26494148 0.076200582 1.8045001
0.27435413 0.07726007 1.8015002
0.28380474 0.077745311 1.8054001
0.29534966 0.078969434 1.8045001
0.30083221 0.079166368 1.8090001
0.085103847 0.085895509 1.8090001
0.094999649 0.085895509 1.8090001
0.14408278 0.085499674 1.8090003
0.1614994 0.082333028 1.8090001
0.25635549 0.085454166 1.8080002
0.26467562 0.085074306 1.8000001
0.27412832 0.085074306 1.8000001
0.28442782 0.08544454 1.807875
0.29538816 0.085802525 1.8080002
0.30347109 0.085499689 1.8090003
0.31349882 0.088666342 1.8090003
0.70895255 0.088225201 1.8000001
0.71685189 0.086044781 1.8072001
0.085499682 0.096582964 1.8090001
0.095452033 0.094999649 1.8090003
0.17960131 0.097677901 1.8000001
0.18726853 0.094687179 1.8030002
0.23749912 0.094999649 1.8090001
0.25488204 0.095111363 1.8057274
0.26467559 0.094526999 1.8000001
0.27481362 0.094371431 1.8045001
0.28421295 0.094740562 1.8040003
0.29509494 0.094683245 1.803
0.30482334 0.094758078 1.8045001
0.31495214 0.094958954 1.8082502
0.70933068 0.091832988 1.8090001
0.71503067 0.093099646 1.8090003
0.085499682 0.10449961 1.8090003
0.11399958 0.10449961 1.8090003
0.15199943 0.10608293 1.8090001
0.19474927 0.10133296 1.8090001
0.21849918 0.10449961 1.8090001
0.22546582 0.1063996 1.8090003
0.23486024 0.10555516 1.8090003
0.24428481 0.10540437 1.8090003
0.25438792 0.10428166 1.80525
0.26585197 0.10444359 1.8080002
0.27549899 0.1044996 1.8090003
0.28499892 0.10449961 1.8090003
0.29497153 0.10410969 1.8022501
0.3056373 0.10397971 1.8000001
0.31526509 0.10403572 1.8010002
0.35149869 0.10608293 1.8090001
0.85546935 0.1071306 1.8000001
0.90656912 0.10582298 1.8045001
0.08510109 0.11451476 1.8072001
0.094891109 0.11387528 1.807
0.11399958 0.11399958 1.8090003
0.17574935 0.11399958 1.8090001
0.18049933 0.11399958 1.8090001
0.22460908 0.11488613 1.8049091
0.23455788 0.11521509 1.8013846
0.24422827 0.11360376 1.8090001
0.25429761 0.11484297 1.8023999
0.26511389 0.11488468 1.8049091
0.28548729 0.11362777 1.8081001
0.2954914 0.11509002 1.8012857
0.30532223 0.11406258 1.8000001
0.3154051 0.11406258 1.8000001
0.35149869 0.11399958 1.8090003
0.36733195 0.11716623 1.8090001
0.3736653 0.11716624 1.8090003
0.085787565 0.12551469 1.8090003
0.11338966 0.12286711 1.8064287
0.15335658 0.12576145 1.8090003
0.21741211 0.126036 1.8000001
0.23406687 0.12648614 1.8000002
0.2441203 0.12551469 1.8090003
0.2547172 0.12546571 1.8009001
0.26512465 0.12546571 1.8009001
0.27470204 0.12471392 1.80375
0.28499892 0.12508285 1.8090003
0.29480425 0.12579243 1.8034614
0.30374679 0.12540583 1.8000001
0.31824091 0.12446056 1.8000001
0.37524864 0.12508287 1.8090001
0.38633192 0.12706202 1.8090001
0.40539089 0.12777096 1.8022501
0.41591883 0.1291869 1.8000001
0.085499682 0.13616617 1.8090003
0.21596585 0.13806616 1.8090003
0.23433246 0.13616617 1.8090003
0.24383242 0.13616616 1.8090003
0.25355726 0.13538702 1.8024546
0.26557589 0.13503858 1.8000002
0.27412835 0.1354887 1.8000001
0.2840589 0.13571452 1.8030001
0.29533783 0.13582744 1.8045001
0.3056373 0.1354887 1.8000001
0.31614029 0.13601385 1.8000001
0.32454273 0.1354887 1.8000001
0.37524864 0.13616616 1.8090003
0.38633189 0.13616617 1.8090003
0.39561129 0.13608915 1.8080002
0.40589505 0.13582744 1.8045
0.1348995 0.14566612 1.8090003
0.19656628 0.14558734 1.8015002
0.20543869 0.14431122 1.8000001
0.21462181 0.14518122 1.8030001
0.23512411 0.14329113 1.8090001
0.24383242 0.14566612 1.8090003
0.25433594 0.14547391 1.8027
0.26557586 0.14539154 1.8000002
0.27412835 0.1449414 1.8000001
0.28449795 0.14539985 1.8018
0.29452646 0.14508516 1.8067502
0.31416181 0.14524601 1.8037499
0.32472128 0.14502367 1.801
0.33474115 0.14525999 1.8040003
0.34446996 0.14646511 1.8077146
0.36416531 0.14606196 1.8090001
0.37477729 0.14548232 1.8067502
0.38612005 0.1455856 1.8080002
0.3942984 0.14510596 1.802
0.40522546 0.14506483 1.8015001
0.41631269 0.1449414 1.8000001
0.085406907 0.15499103 1.8070003
0.19625607 0.15394399 1.8000002
0.21426122 0.15281865 1.8000001
0.2243406 0.15482123 1.8050001
0.25395861 0.15458712 1.8022499
0.26467562 0.15439412 1.8000001
0.27412832 0.15439411 1.8000001
0.28529969 0.15410766 1.8
0.29579073 0.15478796 1.8000001
0.32489982 0.1545639 1.802
0.3339954 0.15439411 1.8000001
0.3440783 0.15439412 1.8000001
0.35532525 0.15499455 1.807
0.364813 0.15499455 1.8070003
0.37465638 0.15474358 1.8040909
0.39573139 0.15536696 1.8067502
0.40640312 0.15497309 1.8067501
0.1974564 0.1617462 1.8000001
0.21662438 0.16384681 1.8000001
0.22396599 0.16402885 1.802
0.25565353 0.1641199 1.8030001
0.2654056 0.16430371 1.8050001
0.27412832 0.16384681 1.8000001
0.28358102 0.16447699 1.8000001
0.29657847 0.16345294 1.8000001
0.3056373 0.16384681 1.8000001
0.31526503 0.16393609 1.801
0.32454273 0.16384681 1.8000001
0.3339954 0.16384681 1.8000001
0.38440984 0.16384681 1.8000001
0.39386249 0.16384681 1.8000001
0.085074306 0.17487495 1.8
0.1953558 0.17960131 1.8000001
0.20638394 0.17802584 1.8000001
0.2142612 0.17566267 1.8000001
0.25438377 0.17484765 1.803
0.27453476 0.17418964 1.8027003
0.3051872 0.17510003 1.8000002
0.31509003 0.17487495 1.8
0.32454276 0.17487496 1.8
0.33401591 0.17410615 1.8018
0.54195482 0.17960131 1.8000001
0.77354598 0.17802586 1.8000001
0.78397149 0.17509356 1.8022501
0.085074306 0.18590312 1.8000001
0.20503257 0.18611142 1.8020003
0.26520413 0.18492059 1.8016365
0.27462673 0.18508676 1.8032728
0.3056373 0.1859031 1.8000001
0.31509 0.18590312 1.8000001
0.32454273 0.1859031 1.8000001
0.76881969 0.18590312 1.8000001
0.075621605 0.19535583 1.8000001
0.26467559 0.19535582 1.8000001
0.27412832 0.1953558 1.8000001
0.31509003 0.1953558 1.8000001
0.36460418 0.19490568 1.8000002
0.37495711 0.1953558 1.8000001
0.38440984 0.19535582 1.8000001
-0.64388651 0.20794368 1.8090003
-0.63412261 0.20820756 1.8090001
-0.62699765 0.20899922 1.8090001
0.26467562 0.20480852 1.8000001
0.37495711 0.2048085 1.8000001
-0.64283091 0.2137492 1.8090001
-0.63491428 0.21533254 1.8090003
-0.62541437 0.21533254 1.8090003
-0.61274773 0.21849918 1.8090001
-0.60324776 0.21691585 1.8090001
-0.36865532 0.21426122 1.8000001
0.36550444 0.2142612 1.8000001
-0.6338588 0.2227214 1.8090003
-0.62435883 0.22430472 1.8090003
-0.61749768 0.22483249 1.8090001
-0.60324776 0.22324917 1.8090001
-0.59572697 0.22443667 1.8090001
-0.58525878 0.22420757 1.8040003
-0.60377556 0.23222135 1.8090003
-0.59533113 0.2334277 1.8090003
-0.58478183 0.234542 1.8009001
-0.57841074 0.2358685 1.8056251
-0.35794225 0.23442698 1.8000001
-0.72833061 0.24383242 1.8090001
-0.35920262 0.24419476 1.8000001
0.092340633 0.022289118 1.8190001
0.13691887 0.038209919 1.8190001
0.19264168 0.035025757 1.8190001
0.13691887 0.044578239 1.8190001
0.14169511 0.047762398 1.8190001
0.082788154 0.050946556 1.8190001
0.097116873 0.050946556 1.8190001
0.10507728 0.052538641 1.8190001
0.13437156 0.053493883 1.8190001
0.14408323 0.054926753 1.8190001
0.15283966 0.057314876 1.8190001
0.19359691 0.056041211 1.8190001
0.20272484 0.055192098 1.8190001
0.21429394 0.05444913 1.8190001
0.23244366 0.054130718 1.8190001
0.14368521 0.062489137 1.8190001
0.19423373 0.063683189 1.819
0.20378621 0.063683189 1.819
0.21449658 0.063393727 1.8190001
0.24677238 0.066867352 1.8190001
0.077784471 0.075964957 1.8190002
0.22395258 0.078542612 1.8190001
-0.51583397 0.085972317 1.819
0.15283966 0.082788154 1.8190001
0.84061819 0.082788154 1.8190001
-0.52538639 0.095524795 1.819
-0.51583385 0.095524795 1.819
-0.36657637 0.095126778 1.8190001
0.25154862 0.092340633 1.8190001
0.82469738 0.092340633 1.8190001
-0.52538639 0.10467925 1.8190001
-0.51583385 0.10467926 1.8190001
-0.36777049 0.10507728 1.8190001
-0.51583391 0.11462976 1.819
-0.49672893 0.11781391 1.8190001
-0.44472098 0.11250699 1.8190001
-0.36830115 0.11356837 1.8190001
-0.51264971 0.12099807 1.8190001
-0.49672893 0.12099807 1.8190001
-0.39547262 0.14456086 1.8190001
-0.38528332 0.14487927 1.8190001
-0.37573084 0.15283966 1.8190001
-0.6065824 0.22925951 1.8190001
0.45758775 -0.10559717 1.8280001
0.46398756 -0.10559717 1.8280001
0.32730553 -0.073140897 1.8280002
0.55145192 -0.073598027 1.8280001
0.32799119 -0.062398326 1.8280001
0.33279109 -0.065598242 1.8280001
0.55358517 -0.067198202 1.8280001
0.30719176 -0.057598457 1.8280001
0.31039169 -0.05439854 1.8280001
0.3276712 -0.055038523 1.8280001
0.32639125 -0.047998715 1.8280001
0.3615903 -0.025599314 1.8280001
0.55358517 -0.014399614 1.8280001
0.55166525 -0.0070398115 1.8280001
0.094797462 0.0043998817 1.8280001
0.10719712 0.0079997852 1.8280001
0.07519798 0.012799657 1.8280001
0.087197661 0.013599636 1.8280001
0.10431721 0.015359588 1.8280001
-0.37119004 0.047998715 1.8280001
-0.36799014 0.052798584 1.8280001
-0.36719015 0.064798266 1.8280001
-0.36639017 0.071998075 1.8280001
-0.37119004 0.083197773 1.8280001
-0.51838613 0.10879708 1.8280001
-0.10376176 -0.15363176 1.8380001
-0.14478387 -0.13191418 1.8380001
0.27348062 -0.1335229 1.8380001
0.29600257 -0.12547934 1.8380001
0.41504711 -0.11260967 1.8380001
0.46652576 -0.11260967 1.8380001
0.32817677 -0.10939225 1.8380001
0.41343838 -0.10939225 1.8380001
0.45580107 -0.10510236 1.8380001
0.46581084 -0.10653231 1.8380002
0.46652576 -0.099739991 1.8380001
0.25739354 -0.08687032 1.8380001
0.26061094 -0.082044184 1.8380001
0.32817677 -0.080435477 1.8380001
0.33246666 -0.081507951 1.8380001
0.39735126 -0.082044184 1.8380001
0.40217739 -0.080435477 1.8380001
0.45365611 -0.084939875 1.8380002
0.25739354 -0.075609356 1.8380001
0.33568406 -0.072928175 1.8380001
0.39767298 -0.074644126 1.8380002
0.4047513 -0.073357157 1.8380002
0.41343835 -0.072391935 1.8380001
0.45365611 -0.073598467 1.8380002
0.5566135 -0.074804991 1.8380001
0.32388687 -0.063275918 1.8380001
0.39574257 -0.063888758 1.8380003
0.40539479 -0.063946202 1.8380002
0.41412786 -0.063888758 1.8380003
0.42148191 -0.061130963 1.8380001
0.45204741 -0.067565799 1.8380001
0.31595057 -0.055339612 1.8380002
0.32335064 -0.054696124 1.8380002
0.35177118 -0.05255118 1.8380001
0.36678579 -0.054696124 1.8380001
0.37257716 -0.054696124 1.8380002
0.38823527 -0.053623654 1.8380001
0.39574257 -0.054293949 1.8380002
0.40861222 -0.054696124 1.8380001
0.41451085 -0.055768594 1.8380002
0.35437575 -0.036310874 1.8380003
0.40217739 -0.032174192 1.8380001
-0.37858301 0.008579785 1.8380001
-0.37965545 0.016087096 1.8380001
0.06793341 -0.22320977 1.848
0 -0.21673992 1.848
0.029114319 -0.21997485 1.848
0.26364633 -0.21673992 1.848
0 -0.20703515 1.848
-0.066315949 -0.19086054 1.848
0.29276064 -0.19409546 1.848
0.30327415 -0.19166926 1.848
-0.080873109 -0.18115576 1.848
-0.074403256 -0.18244973 1.8479999
-0.065345474 -0.18244973 1.8479999
-0.054993711 -0.18115576 1.848
-0.11322235 -0.17306845 1.848
-0.10513504 -0.17145099 1.848
-0.048523866 -0.17306845 1.848
0.43347985 -0.16498114 1.848
-0.25749999 -0.15592335 1.8479999
-0.18479505 -0.154872 1.8479998
-0.17522506 -0.15581551 1.8479999
-0.035988532 -0.15527636 1.8479998
-0.24585424 -0.14621858 1.8479999
-0.17468593 -0.14718905 1.8479999
-0.16498114 -0.14516723 1.8479998
-0.15527636 -0.14395413 1.8479999
-0.11645728 -0.14557159 1.8479998
-0.074403264 -0.14557159 1.8479998
-0.066315949 -0.14557159 1.8479999
0.27496856 -0.14557157 1.8479998
0.28386462 -0.1431454 1.848
-0.06793341 -0.13586682 1.848
0.27496856 -0.13632897 1.8479999
0.28467333 -0.13586682 1.8479998
0.29329979 -0.13478851 1.8479999
-0.25717649 -0.12939698 1.848
-0.06793341 -0.12939698 1.848
-0.058228638 -0.12939698 1.848
0.30367851 -0.12575768 1.8479998
0.31286344 -0.12569992 1.8479999
0.32478639 -0.12357412 1.8479999
0.22428808 -0.11861389 1.848
0.23614947 -0.11645728 1.848
0.32510993 -0.11645728 1.8479998
0.34290197 -0.11483981 1.848
0.3768687 -0.11645728 1.8479999
0.38536039 -0.11605291 1.8479998
0.39142585 -0.11807474 1.848
0.41407034 -0.11699643 1.8479999
-0.46744657 -0.097047731 1.848
-0.42161846 -0.086264655 1.848
0.26669919 -0.29271862 1.858
0.26669919 -0.2894662 1.858
-0.13985446 -0.26182055 1.858
0.055291295 -0.25043708 1.8580002
-0.20490304 -0.24393219 1.858
0.046834983 -0.24328171 1.858
0.055291303 -0.2439322 1.858
0.065048583 -0.2439322 1.858
0.074805871 -0.24393219 1.858
-0.20490305 -0.23222344 1.858
-0.12196609 -0.23092248 1.858
-0.11546124 -0.23092248 1.858
-0.0097572878 -0.23254868 1.858
0.0032524292 -0.23092248 1.858
0.016262146 -0.23092248 1.858
0.026019434 -0.23092248 1.858
0.058543727 -0.23417491 1.8580002
0.065048583 -0.23417492 1.858
-0.0097572878 -0.22604382 1.858
0.02493529 -0.22550176 1.8580002
0.033608437 -0.22333348 1.8580002
0.065590657 -0.2249597 1.858
0.074263796 -0.22387555 1.858
0.081310727 -0.2227914 1.858
0.16262147 -0.22441761 1.8580002
0.21682861 -0.22550176 1.8580002
0.22224933 -0.22333348 1.8580002
0.26669919 -0.22116518 1.858
-0.26019436 -0.21466033 1.8580002
0.0019514576 -0.21466032 1.858
0.066674799 -0.21791275 1.858
0.081310734 -0.21466033 1.8580002
0.13985446 -0.21628654 1.858
0.1455462 -0.21547343 1.858
0.26019433 -0.21791275 1.858
0.27970892 -0.21466033 1.858
0.32199049 -0.2114079 1.858
0.42932066 -0.2114079 1.858
-0.26019436 -0.20490304 1.8580002
0.076432087 -0.20815547 1.858
0.082936943 -0.20815547 1.858
0.12359231 -0.20490304 1.858
0.1347435 -0.20490305 1.858
0.14635931 -0.20490304 1.858
0.30619299 -0.20397379 1.858
0.31507909 -0.2053096 1.8579999
0.32524291 -0.2058323 1.858
0.43745172 -0.20490304 1.858
0.0048786439 -0.19514579 1.858
0.015797514 -0.19421652 1.858
0.29841039 -0.19433264 1.858
0.30637884 -0.19709721 1.858
-0.013009717 -0.18213603 1.858
-0.0097572878 -0.18538846 1.858
0.34638369 -0.18213603 1.858
0.35559893 -0.18322019 1.8580002
0.3447575 -0.17888361 1.8580002
0.4358255 -0.17237875 1.858
-0.50412655 -0.16587389 1.858
0.43745172 -0.16750011 1.858
-0.53484392 -0.156478 1.858
-0.52457041 -0.15565199 1.858
-0.50412655 -0.15611662 1.858
-0.48591289 -0.15481563 1.858
-0.52526736 -0.14635931 1.858
-0.52526736 -0.13985446 1.858
-0.50319731 -0.13660203 1.858
-0.49469447 -0.13595155 1.858
-0.48705128 -0.1333496 1.858
-0.2645309 -0.13334961 1.858
-0.25368947 -0.13660203 1.858
-0.40113291 -0.12250817 1.8580002
-0.39462811 -0.12413438 1.858
-0.30898076 -0.12521853 1.858
0.29102415 -0.37931237 1.868
0.29102415 -0.3662326 1.868
-0.22235551 -0.32045355 1.868
-0.18311632 -0.32208851 1.868
-0.17984638 -0.32045355 1.868
-0.23543525 -0.30410385 1.868
0.26813459 -0.30083394 1.868
-0.24524505 -0.29429409 1.868
-0.23636952 -0.29476124 1.8680001
0.26393041 -0.29476124 1.8680001
0.27467445 -0.29429409 1.868
0.28121433 -0.2926591 1.868
0.017984636 -0.28121433 1.868
0.058858812 -0.28121433 1.868
0.26551864 -0.28644621 1.868
0.27576444 -0.28557426 1.868
0.28121433 -0.28611922 1.868
0.017984636 -0.27794439 1.868
0.035969276 -0.27303952 1.868
0.055588882 -0.27467448 1.868
0.065398678 -0.27467448 1.868
0.075208485 -0.27303952 1.868
-0.15041697 -0.26159471 1.868
-0.14518508 -0.26617262 1.868
0.036378019 -0.26445591 1.868
0.065398678 -0.26486468 1.868
0.075208493 -0.26486468 1.868
0.084200799 -0.26322967 1.868
0.094828084 -0.26159471 1.868
-0.21254572 -0.25505486 1.868
-0.18638626 -0.25505489 1.868
-0.16022678 -0.25178492 1.868
0.085018292 -0.25668988 1.868
0.17003657 -0.25178492 1.868
0.38585222 -0.2537469 1.868
0.40220189 -0.25341988 1.868
-0.17494147 -0.24415509 1.868
-0.16240673 -0.24470007 1.868
0.0037370678 -0.24431081 1.8680001
0.084551148 -0.24431081 1.8680001
0.1438771 -0.24197513 1.868
0.17003658 -0.24524507 1.868
0.27794439 -0.24361008 1.868
0.34007314 -0.24197513 1.868
0.36623263 -0.24851499 1.868
0.37931237 -0.24688002 1.868
0.3947278 -0.24571221 1.8680001
0.40220189 -0.24851499 1.868
0.053136431 -0.23625273 1.868
0.22399049 -0.23216532 1.868
0.2751416 -0.23450102 1.8680001
0.3760424 -0.23543525 1.868
0.38585225 -0.23543525 1.868
0.3923921 -0.23380029 1.868
0.37604243 -0.22603419 1.868
0.42836136 -0.22399049 1.868
-0.62292242 -0.21581566 1.868
-0.61433887 -0.21540692 1.868
-0.60657275 -0.21663314 1.868
-0.59349304 -0.21663314 1.868
-0.58531821 -0.21581565 1.868
-0.57550842 -0.21581566 1.868
-0.56766057 -0.21516168 1.868
-0.60493779 -0.20927578 1.868
-0.595128 -0.20600584 1.868
-0.57550842 -0.20600584 1.868
-0.56733358 -0.20600586 1.868
-0.26649964 -0.20600586 1.868
-0.60452908 -0.19660479 1.868
-0.57509965 -0.19578731 1.868
-0.5678786 -0.198376 1.868
-0.52776736 -0.19685005 1.868
-0.26649964 -0.19619605 1.868
-0.60166788 -0.18802121 1.868
-0.59567302 -0.18747622 1.868
-0.58858812 -0.18638626 1.868
-0.5776884 -0.18856621 1.868
-0.5264594 -0.18475127 1.868
-0.26748061 -0.17592245 1.868
-0.36623263 -0.16594917 1.868
-0.26813459 -0.16513167 1.868
-0.50029993 -0.15041697 1.868
-0.34988296 -0.15695684 1.868
-0.27467448 -0.15041697 1.868
-0.50029993 -0.14714703 1.868
-0.32154354 -0.1438771 1.868
-0.31391367 -0.14060716 1.868
-0.28284931 -0.14387709 1.868
-0.33353329 -0.13079737 1.868
0.71501803 -0.55311167 1.8780001
0.71501815 -0.54571497 1.8780001
0.72542828 -0.54681081 1.8780001
0.73309898 -0.53914005 1.8780001
0.650913 -0.52270287 1.8780001
0.63776326 -0.516128 1.8780001
0.64762557 -0.51448429 1.8780001
0.6739251 -0.51284057 1.8780001
0.68378741 -0.51284057 1.8780001
0.69474554 -0.51558006 1.8780001
0.70679951 -0.51941544 1.8780001
0.67433608 -0.50585479 1.8780001
0.68378741 -0.5062657 1.878
0.70022458 -0.50955313 1.8780001
0.54900241 -0.49311593 1.8780001
0.55228984 -0.49311593 1.8780001
0.23603816 -0.4839111 1.8780001
0.75676858 -0.48588353 1.8780001
0.63776326 -0.47339129 1.8780001
0.64474905 -0.47298032 1.8780001
0.75446737 -0.46517268 1.8780001
0.29258212 -0.38627413 1.8780001
0.047119968 -0.36381 1.8780001
0.055886474 -0.36490574 1.878
0.016437197 -0.35175604 1.8780001
0.037805554 -0.35175604 1.8780001
0.046024155 -0.35175604 1.8780001
0.055886474 -0.3550435 1.878
0.065337859 -0.35463259 1.8780001
0.072323665 -0.3550435 1.8780001
-0.24491423 -0.3418937 1.8780001
-0.23833936 -0.3418937 1.8780001
0.038134299 -0.34583864 1.8780001
0.046024151 -0.34518114 1.878
0.074789248 -0.346003 1.8780001
0.08711715 -0.3418937 1.8780001
0.09369202 -0.3418937 1.8780001
0.0082185986 -0.33367512 1.8780001
0.046024151 -0.33531886 1.878
0.055475544 -0.33490792 1.8780001
0.064652979 -0.33477092 1.8780001
0.095335737 -0.33531886 1.878
0.10410225 -0.33586675 1.8780001
0.0065748794 -0.32463467 1.8780001
0.013971617 -0.32463464 1.8780001
0.055886474 -0.3254565 1.878
0.065748788 -0.3254565 1.878
0.075611107 -0.32545653 1.878
0.095335737 -0.32545653 1.878
0.10478713 -0.3254565 1.8780001
0.26628259 -0.3254565 1.8780003
-0.22190216 -0.31395048 1.8780001
-0.21368356 -0.31641605 1.8780001
0.0049311593 -0.3155942 1.8780001
0.075611107 -0.3155942 1.878
0.085473426 -0.3155942 1.878
0.094924808 -0.31600511 1.8780001
0.1043762 -0.31641605 1.8780001
0.28600723 -0.3155942 1.878
0.34846857 -0.3155942 1.8780001
0.35339975 -0.31477234 1.8780001
0.0049311593 -0.30573186 1.8780001
0.09369202 -0.3090193 1.8780001
0.10519806 -0.3090193 1.8780001
0.3484686 -0.30573186 1.8780001
0.35175604 -0.30573186 1.8780001
0.36654949 -0.30573186 1.8780001
0.3539477 -0.29696539 1.8780001
-0.52927774 -0.28600723 1.8780001
-0.26496762 -0.28469226 1.8780001
-0.63250339 -0.27680239 1.8780001
-0.62790096 -0.27778864 1.8780001
-0.55557728 -0.27614492 1.8780001
-0.52927774 -0.27614492 1.8780001
-0.55393356 -0.26299515 1.8780001
-0.52927774 -0.26628262 1.8780001
-0.55393356 -0.258064 1.8780001
-0.52927774 -0.25642031 1.8780001
-0.53585267 -0.24655795 1.878
-0.63447583 -0.23012076 1.8780001
-0.53585261 -0.23998308 1.8780001
-0.59173912 -0.20053381 1.8780001
-0.58187681 -0.20053381 1.8780001
-0.59173912 -0.19560266 1.8780001
0.7243337 -0.60590649 1.8880002
0.66374302 -0.59544086 1.8880002
0.67090368 -0.59489 1.8880002
0.70064819 -0.59489 1.8880001
0.7431404 -0.59441793 1.8880002
0.75022238 -0.59489 1.8880001
0.68459564 -0.58403093 1.8880002
0.69348752 -0.58497518 1.8880002
0.70064819 -0.58497518 1.8880001
0.75187486 -0.5833227 1.8880001
0.69445145 -0.57547343 1.8880002
0.70354009 -0.57464719 1.8880002
0.71386796 -0.57307738 1.8880001
0.72331077 -0.57411605 1.8880002
0.73535013 -0.57506031 1.8880001
0.74030757 -0.57671279 1.8880001
0.75242567 -0.57506031 1.8880002
0.69498265 -0.56514549 1.8880002
0.70348108 -0.56608981 1.8880002
0.71386802 -0.56679797 1.8880002
0.72336972 -0.56473237 1.8880002
0.73287141 -0.56266677 1.8880001
0.74030757 -0.56349301 1.8880001
0.69651705 -0.55605686 1.8880001
0.70230073 -0.55523062 1.8880002
0.71552044 -0.55853558 1.8880001
0.72378278 -0.55853558 1.8880001
0.73479933 -0.55578148 1.8880002
0.74113381 -0.55605686 1.8880001
0.66495484 -0.54333287 1.8880001
0.67420864 -0.54366338 1.8880002
0.68478447 -0.54333287 1.8880001
0.69536036 -0.5453158 1.8880001
0.70300895 -0.54484367 1.8880002
0.71441883 -0.544765 1.8880002
0.7262615 -0.54448962 1.8880001
0.73424852 -0.54641747 1.8880002
0.74361247 -0.5453158 1.8880002
0.75311416 -0.54490268 1.8880002
0.7601372 -0.5453158 1.8880001
0.65768391 -0.53209603 1.8880001
0.66429383 -0.53540093 1.8880002
0.67420864 -0.53540093 1.8880002
0.68280154 -0.53672296 1.8880001
0.69403833 -0.53870595 1.8880002
0.71386802 -0.53634524 1.8880002
0.73479933 -0.53540099 1.8880002
0.20408031 -0.52548611 1.8880001
0.6037032 -0.5243845 1.8880002
0.61538064 -0.52482522 1.8880001
0.6246345 -0.52548617 1.8880002
0.63454932 -0.52548617 1.8880002
0.64405096 -0.52507305 1.8880002
0.65437895 -0.52548611 1.8880002
0.66429383 -0.52548611 1.8880002
0.67420864 -0.52548617 1.8880002
0.70725811 -0.52218121 1.8880001
0.71221554 -0.52548617 1.8880001
0.73568064 -0.52614713 1.8880001
0.14541756 -0.51557136 1.8880002
0.15367991 -0.5122664 1.8880001
0.16477509 -0.51557136 1.8880002
0.19829667 -0.51887625 1.8880001
0.20655902 -0.51557136 1.8880001
0.2141604 -0.51358837 1.8880001
0.22473621 -0.5122664 1.8880002
0.60348284 -0.51623237 1.8880001
0.61513281 -0.51515824 1.8880002
0.62369025 -0.51557136 1.8880002
0.63454932 -0.51557142 1.8880002
0.645015 -0.51612222 1.8880002
0.65603149 -0.51557136 1.8880002
0.66429383 -0.5155713 1.8880002
0.67326438 -0.51604354 1.8880002
0.70643187 -0.51557136 1.8880001
0.71188498 -0.51557136 1.8880001
0.73700261 -0.51887625 1.8880001
0.13550271 -0.50565648 1.8880002
0.14541756 -0.50565648 1.8880002
0.1540104 -0.50565648 1.8880001
0.16304393 -0.50785983 1.8880002
0.17626369 -0.50785983 1.8880002
0.21592301 -0.50675815 1.8880002
0.22473621 -0.5060696 1.8880002
0.23465106 -0.50565648 1.8880002
0.2445659 -0.50612867 1.8880002
0.25489384 -0.5060696 1.8880002
0.54399389 -0.50433451 1.8880001
0.55467981 -0.50565648 1.8880002
0.64446414 -0.50565648 1.8880002
0.65437901 -0.504004 1.8880002
0.66759878 -0.50730896 1.8880001
0.69734329 -0.504004 1.8880001
0.70354009 -0.50565648 1.8880002
0.71221554 -0.50896144 1.8880001
0.72543526 -0.50235152 1.8880001
0.73204517 -0.50235152 1.8880001
0.75104862 -0.50483024 1.8880001
0.16194227 -0.49739414 1.8880001
0.17846699 -0.49408919 1.8880001
0.18375491 -0.49508068 1.8880001
0.19499174 -0.49574167 1.8880002
0.20160161 -0.49574167 1.8880002
0.21647385 -0.49574167 1.8880002
0.22432309 -0.49615476 1.8880002
0.23506418 -0.49615476 1.8880002
0.24415277 -0.49615476 1.8880002
0.25448075 -0.49574164 1.8880002
0.26109061 -0.49904659 1.8880001
0.5453158 -0.49574164 1.8880002
0.55578148 -0.49629247 1.8880002
0.56514549 -0.49574164 1.8880002
0.62369025 -0.49621379 1.8880002
0.63124436 -0.49739414 1.8880001
0.65532327 -0.49621379 1.8880002
0.66098887 -0.49408919 1.8880001
0.68081856 -0.49408919 1.8880001
0.69514 -0.49684334 1.8880002
0.70395321 -0.49668592 1.8880002
0.71056306 -0.49243671 1.8880001
0.72576576 -0.49574167 1.8880001
0.73287141 -0.49408919 1.8880001
0.74361253 -0.49243674 1.8880002
0.10906316 -0.48417437 1.8880001
0.11567307 -0.48582682 1.8880002
0.19499172 -0.48450491 1.8880001
0.20435575 -0.48472518 1.8880002
0.23465104 -0.48582682 1.8880001
0.24291342 -0.48252189 1.8880001
0.25448072 -0.48535472 1.8880002
0.5453158 -0.48582682 1.8880002
0.55481756 -0.48623991 1.8880002
0.56646746 -0.48714882 1.8880001
0.57395869 -0.48692846 1.8880002
0.60480487 -0.48913178 1.8880002
0.61306715 -0.48913178 1.8880001
0.62132955 -0.48913178 1.8880001
0.64446419 -0.48535472 1.8880002
0.65437895 -0.48582682 1.8880002
0.66346759 -0.48334813 1.8880001
0.70354009 -0.48541367 1.8880002
0.71221554 -0.48500061 1.8880001
0.72708774 -0.48582685 1.8880002
0.73204517 -0.48582682 1.8880002
0.74361253 -0.48830554 1.8880001
0.75187486 -0.48913178 1.8880001
0.23630354 -0.47591203 1.8880002
0.24456589 -0.47591203 1.8880002
0.25249776 -0.47657299 1.8880001
0.26494637 -0.47591203 1.8880002
0.55570281 -0.47685632 1.8880002
0.56514549 -0.47591203 1.8880002
0.57506031 -0.47591203 1.8880002
0.58497518 -0.47425956 1.8880002
0.59158504 -0.47425953 1.8880001
0.60563105 -0.47508577 1.8880001
0.61471969 -0.47591203 1.8880002
0.62353289 -0.47481036 1.8880002
0.63502151 -0.47591203 1.8880002
0.64446414 -0.47921693 1.8880001
0.70489752 -0.47638419 1.8880002
0.71331716 -0.47481036 1.8880002
0.17516205 -0.46930212 1.8880002
0.24401507 -0.4670988 1.8880002
0.25503156 -0.46654803 1.8880002
0.26191685 -0.46517092 1.8880001
0.56514549 -0.46764964 1.8880002
0.57506037 -0.46764967 1.8880002
0.58544731 -0.46694145 1.8880002
0.59441793 -0.46599722 1.8880002
0.60480481 -0.46599716 1.8880002
0.63344771 -0.4670988 1.8880002
-0.25558239 -0.45663318 1.8880002
-0.26274306 -0.44451502 1.8880001
-0.26274309 -0.43625265 1.8880002
0.0049574166 -0.39659333 1.8880004
0.0049574161 -0.38502607 1.8880004
0.016524721 -0.38502604 1.8880004
0.026439555 -0.38502604 1.8880004
0.036354385 -0.38502604 1.8880004
0.23465104 -0.3800686 1.8880001
0.004957417 -0.37345871 1.8880004
0.016524721 -0.37345868 1.8880002
0.026439555 -0.37345868 1.8880002
0.036354385 -0.37345868 1.8880002
0.046269219 -0.37345868 1.8880002
0.22638869 -0.37345871 1.8880002
0.069403835 -0.36189139 1.8880001
0.076957993 -0.36354387 1.8880002
0.33379939 -0.36023894 1.8880001
-0.45674333 -0.35296807 1.8880001
-0.44451502 -0.35362905 1.8880001
-0.43955761 -0.35528153 1.8880001
-0.3800686 -0.35032409 1.8880001
-0.3635439 -0.35362908 1.8880002
-0.45608234 -0.34701917 1.8880002
-0.26274309 -0.34371424 1.8880002
-0.37345871 -0.33379936 1.8880002
-0.38172108 -0.32718951 1.8880001
-0.27761534 -0.27431038 1.8880001
-0.27265793 -0.25448072 1.8880002
0.56677604 -0.66400886 1.899
0.62827373 -0.66151571 1.899
0.63492215 -0.66151571 1.899
0.62494957 -0.65445179 1.899
0.63492221 -0.65486735 1.8989999
0.60832852 -0.64323264 1.899
0.62494951 -0.64489484 1.8989999
0.63492215 -0.64489478 1.8989999
0.64489472 -0.64489472 1.8989999
0.65403628 -0.64240158 1.899
0.55514133 -0.63492221 1.8989999
0.56677604 -0.63492215 1.899
0.60832852 -0.63492215 1.899
0.614977 -0.63492215 1.8989999
0.62494957 -0.63492215 1.8989999
0.63492215 -0.63492215 1.8989999
0.64489478 -0.63492221 1.8989999
0.65486741 -0.63492215 1.8989999
0.66442442 -0.63450664 1.899
0.6737045 -0.63603026 1.899
0.68810934 -0.63492215 1.899
0.69434226 -0.63450658 1.899
0.70473033 -0.632429 1.899
0.55347931 -0.62494957 1.899
0.56843817 -0.62827373 1.899
0.59835595 -0.62162536 1.899
