# .PCD v0.7 - Point Cloud Data file format
VERSION 0.7
FIELDS x y z
SIZE 4 4 4
TYPE F F F
COUNT 1 1 1
WIDTH 1225
HEIGHT 1
VIEWPOINT 0 0 0 1 0 0 0
POINTS 1225
DATA ascii
0.84512132 0.67778575 1.7540001
0.85663521 0.67548299 1.7540001
0.87505752 0.70158124 1.7540001
0.85547572 0.62833643 1.7630001
0.84482861 0.63342851 1.7630001
0.85485846 0.63574314 1.7630002
0.89806432 0.6342001 1.7630001
0.84745181 0.66413558 1.7630001
0.85177237 0.66969061 1.7630001
0.8363418 0.67709732 1.7630001
0.84560013 0.67648011 1.7630001
0.85177237 0.67431974 1.7630001
0.83634174 0.68820739 1.7630002
0.83479875 0.69437975 1.7630004
0.84436572 0.69314522 1.7630001
0.89799607 0.60176593 1.7720001
0.90264893 0.60176593 1.7720001
0.88248658 0.6126225 1.7720001
0.89954704 0.61107159 1.7720001
0.86542624 0.63278478 1.7720001
0.8747319 0.63898855 1.7720001
0.8530187 0.67621124 1.7720001
0.82555121 0.62851638 1.7810001
0.062352814 0.71705735 1.7810001
0.062352814 0.72329265 1.7810001
0.48567626 0.41987497 1.7900001
0.49507648 0.41674155 1.7900002
0.48567629 0.42614174 1.7900002
0.88191336 0.12983285 1.8090001
0.88508004 0.13616619 1.8090003
0.79483032 0.20583256 1.8090003
0.79641366 0.21533251 1.8090003
0.80393451 0.21572834 1.8090001
0.81383032 0.21533252 1.8090003
0.79720533 0.22404084 1.8090001
0.90438461 0.23677179 1.8075001
0.88782394 0.24290028 1.8060001
0.89522702 0.24657147 1.8025717
0.90307558 0.24449411 1.8022501
0.8852843 0.25530353 1.8058234
0.89480549 0.25430343 1.8016363
0.91153449 0.2539573 1.8060001
0.87658042 0.28610173 1.8000001
0.88592815 0.29565948 1.8000001
0.8943305 0.30511218 1.8000001
0.90430832 0.30406186 1.8000001
0.43377393 0.34764934 1.8000001
0.32349241 0.36655471 1.8000001
0.36550444 0.3623535 1.8000001
0.48681408 0.42852241 1.8000001
-0.22166584 0.63491428 1.8090001
-0.21533254 0.63649762 1.8090001
0.86927563 0.10826143 1.8190001
0.81196076 0.11144559 1.8190001
0.86768353 0.11303768 1.8190001
0.87484789 0.11224163 1.8190001
0.80718446 0.13691887 1.8190001
0.81408352 0.13585749 1.8190001
0.81355286 0.14169511 1.8190001
0.83584189 0.16876046 1.8190001
0.84443915 0.1674868 1.8190001
0.8847416 0.16648608 1.8190002
0.90521121 0.16557631 1.8190002
0.91194338 0.16493948 1.8190001
0.83424979 0.17512877 1.819
0.90430135 0.17512879 1.819
0.50946558 0.22607534 1.8190001
0.51583391 0.22607534 1.819
0.39801997 0.2372199 1.8190001
0.40438828 0.23562783 1.8190001
0.4760319 0.23562783 1.8190001
0.48359424 0.23522981 1.8190001
0.51583391 0.23562784 1.819
0.38846749 0.24199614 1.8190001
0.45692694 0.24199614 1.8190001
0.4760319 0.24518029 1.8190001
0.49513683 0.24836446 1.8190001
0.50468934 0.24677238 1.8190001
0.51530319 0.24464962 1.8190001
0.57673097 0.2455783 1.8190001
0.47497052 0.25473279 1.8190001
0.48399225 0.25473276 1.819
0.49445453 0.25609744 1.8190002
0.50468934 0.25473279 1.8190001
0.51344579 0.25393677 1.8190001
0.56518829 0.25473279 1.8190001
0.48590279 0.26364845 1.8190001
0.49672896 0.26474017 1.8190002
0.50548536 0.26348922 1.8190001
0.51264971 0.26587734 1.8190001
0.55404377 0.2611011 1.8190001
0.49752495 0.27224568 1.8190001
0.50575072 0.27383775 1.8190001
0.51583397 0.27338287 1.8190002
0.52666008 0.27383775 1.8190001
0.54449135 0.27383772 1.819
0.48535693 0.28611952 1.8190002
0.4955917 0.28520975 1.8190002
0.50582653 0.28520975 1.8190002
0.51742595 0.28498229 1.8190001
0.52467877 0.28409782 1.819
0.4863804 0.29612684 1.8190001
0.49470267 0.2958374 1.8190001
0.48717645 0.30249518 1.8190001
0.49036059 0.30408728 1.8190001
0.85501713 0.10495719 1.8280001
0.46238762 0.14719605 1.8280001
0.17386201 0.15252925 1.8280001
0.46398753 0.15519585 1.8279998
0.46398756 0.16639555 1.8279999
0.45530209 0.17645241 1.8280002
0.46398756 0.17599528 1.8279999
0.45530212 0.18559505 1.8280002
0.45545447 0.19572809 1.8280001
0.50505316 0.20586118 1.8280001
0.57918447 0.20799443 1.8280001
0.58558434 0.20479453 1.8279999
0.60432667 0.20570879 1.8280002
0.48638695 0.21759416 1.8280001
0.50398654 0.21439426 1.8280001
0.56958473 0.21439426 1.8280001
0.57689881 0.21439424 1.8280002
0.58558428 0.21439426 1.8279999
0.59198415 0.2127943 1.8280001
0.48798692 0.22559395 1.8280001
0.49678668 0.22639392 1.8280001
0.50518644 0.22439401 1.8280001
0.48958689 0.2351937 1.8280001
0.49627766 0.23533915 1.8279998
0.50478649 0.2351937 1.8280001
0.40318918 0.24319348 1.8280001
0.49638671 0.24599342 1.8280001
0.50478649 0.24399346 1.8280001
0.09279751 0.25599313 1.8280001
0.48398703 0.26639286 1.8280001
0.49534675 0.2649529 1.8280001
0.48598698 0.27559263 1.8280001
0.49552959 0.27610689 1.8280002
0.80757219 -0.077218063 1.8380001
0.52443933 0.017695807 1.8380002
0.54374385 0.028956773 1.8380001
0.13754466 0.096522577 1.8380001
0.14317515 0.09652257 1.8380002
0.14317515 0.10295741 1.8380001
-0.72713673 0.38930771 1.8380001
-0.72713673 0.39252514 1.8380001
0.38603434 -0.10459588 1.848
0.44965449 -0.084108032 1.848
0.45612434 -0.082490571 1.848
0.46475083 -0.083568886 1.8479999
0.37525123 -0.074403256 1.848
0.38819093 -0.072785795 1.848
0.39373648 -0.073941134 1.8479999
0.45612434 -0.077638187 1.848
0.4658291 -0.074403264 1.8479998
0.384956 -0.064698488 1.8479998
0.45658648 -0.063774228 1.8479999
0.46582916 -0.064698488 1.8479998
0.5483197 -0.066315949 1.848
0.4367148 -0.055802446 1.8479998
0.45612431 -0.056611177 1.8479999
0.48362118 -0.054993711 1.848
0.42377505 -0.045288943 1.8479998
0.47553387 -0.046906404 1.848
-0.68256903 0.22482723 1.848
-0.67609918 0.22644469 1.8479998
-0.67502093 0.23507117 1.8479999
-0.73109287 0.32672736 1.848
-0.73109287 0.33481467 1.848
-0.73432779 0.34290197 1.848
-0.71297735 0.35648865 1.8479999
-0.73432779 0.3671639 1.848
-0.7149182 0.36554646 1.8479998
-0.73432779 0.37363374 1.848
-0.71437907 0.3741729 1.8479999
-0.73109287 0.384956 1.848
-0.72785795 0.38657346 1.848
-0.66315949 0.38819093 1.848
-0.72570133 0.39573908 1.8479999
-0.65345472 0.39627823 1.848
0.31548566 -0.13389167 1.858
0.41793716 -0.13009717 1.858
0.42932066 -0.13172337 1.858
0.40492746 -0.12359231 1.858
0.41584632 -0.12452158 1.858
0.3138594 -0.10733017 1.858
0.39419442 -0.10407773 1.858
-0.67455381 0.083912671 1.858
-0.68788874 0.097572878 1.858
-0.67487907 0.097572878 1.858
-0.69358051 0.10407773 1.858
-0.6878888 0.10407774 1.858
-0.67542112 0.10299359 1.8580002
-0.62446642 0.12684473 1.858
-0.61308289 0.12684473 1.858
-0.60712016 0.1257606 1.8580002
-0.59844697 0.12684473 1.858
-0.64235473 0.13822824 1.858
-0.6342237 0.13985446 1.858
-0.62338227 0.13497582 1.858
-0.61210722 0.13400009 1.858
-0.60567462 0.1351565 1.858
-0.59658843 0.13660203 1.858
-0.58868968 0.13822824 1.858
-0.69406837 0.1470098 1.858
-0.63584995 0.14635932 1.858
-0.62381595 0.14505835 1.858
-0.61145669 0.1447331 1.858
-0.60430139 0.14570883 1.858
-0.59519452 0.14635931 1.858
-0.69601983 0.1561166 1.858
-0.67487901 0.1561166 1.858
-0.66457975 0.15720075 1.858
-0.65699071 0.1561166 1.8580002
-0.59519458 0.15611662 1.858
-0.7053706 0.16628043 1.8579999
-0.69601995 0.16587389 1.858
-0.68626255 0.16587387 1.858
-0.67397559 0.16551252 1.858
-0.66430867 0.16424766 1.858
-0.65536451 0.16424766 1.858
-0.64333051 0.16392241 1.858
-0.60386771 0.16695803 1.858
-0.59519452 0.16424766 1.858
-0.70484793 0.17516655 1.858
-0.69601989 0.17522463 1.8579999
-0.68626255 0.17400497 1.858
-0.67232364 0.17563118 1.858
-0.66674799 0.17563117 1.8580002
-0.60603607 0.17454705 1.858
-0.7139082 0.18538848 1.858
-0.70415092 0.18538846 1.858
-0.69710398 0.18322019 1.8580002
-0.61145675 0.18538848 1.8580002
-0.60495186 0.18864089 1.8580002
-0.59519458 0.18864089 1.8580002
-0.72203928 0.19189332 1.858
-0.71553445 0.19189332 1.858
-0.60495186 0.19514577 1.858
-0.59519458 0.19514577 1.858
-0.58625036 0.19758508 1.858
-0.5854373 0.2016506 1.8580002
-0.7383014 0.2114079 1.858
-0.67325282 0.22767004 1.858
-0.67325282 0.23092248 1.858
-0.73342276 0.31548563 1.858
-0.73288071 0.32415879 1.8580002
-0.69276744 0.32849535 1.858
-0.73179656 0.33174777 1.858
-0.7361331 0.3447575 1.8580002
-0.71553445 0.34605846 1.858
-0.70577717 0.3447575 1.858
-0.72203934 0.35451478 1.8580002
-0.7149924 0.35343063 1.858
-0.70577711 0.35451481 1.858
-0.64072853 0.356141 1.858
-0.63584995 0.356141 1.858
-0.62771881 0.35776722 1.858
-0.73342276 0.36427209 1.858
-0.72594225 0.36492258 1.858
-0.71228206 0.36427209 1.8580002
-0.70577717 0.36427206 1.858
-0.74155384 0.37077692 1.858
-0.73342276 0.37402937 1.858
-0.72622102 0.37449402 1.858
-0.71228206 0.37402937 1.8580002
-0.73288077 0.38161835 1.8580002
-0.72529173 0.38378668 1.858
-0.67487907 0.39354393 1.858
0.77170444 -0.51337963 1.868
0.74445504 -0.46215066 1.868
0.25341988 -0.22562546 1.868
0.18311632 -0.21254572 1.868
0.28448427 -0.18507828 1.868
0.3237235 -0.18693125 1.868
0.33353329 -0.18638624 1.868
-0.17821141 -0.13079737 1.868
-0.29429409 -0.12589248 1.868
-0.27794439 -0.12752743 1.868
-0.1634967 -0.1242575 1.868
0.31554866 -0.10300293 1.868
-0.66426384 0.017283939 1.8680001
-0.67687637 0.02288954 1.868
-0.66379666 0.026159473 1.868
-0.65398681 0.026159473 1.868
-0.61311263 0.029429406 1.868
-0.60820776 0.029429406 1.868
-0.66338789 0.035560533 1.868
-0.65398681 0.035969272 1.868
-0.64581198 0.035969276 1.868
-0.61311263 0.035969276 1.868
-0.60602778 0.037059255 1.868
-0.69704103 0.046324071 1.868
-0.68232632 0.047959037 1.868
-0.6736064 0.049049012 1.868
-0.66338789 0.045779079 1.868
-0.65398681 0.045779079 1.868
-0.64511132 0.045311946 1.8680001
-0.61433887 0.045370337 1.868
-0.60493785 0.045779079 1.868
-0.69649601 0.052318946 1.868
-0.68145424 0.055588879 1.868
-0.6736064 0.055588875 1.868
-0.66338789 0.055997618 1.868
-0.65439558 0.05518014 1.868
-0.64417708 0.055588875 1.868
-0.63436723 0.058858812 1.868
-0.62455744 0.058858812 1.868
-0.61147767 0.052318946 1.868
-0.60820776 0.052318946 1.868
-0.69322604 0.065398686 1.868
-0.68423373 0.066216171 1.868
-0.6736064 0.065398678 1.868
-0.66379666 0.065398678 1.868
-0.65439558 0.065807424 1.868
-0.64464414 0.06446442 1.8680001
-0.63436723 0.063763723 1.868
-0.59839791 0.068668619 1.868
-0.70677286 0.076142758 1.8680001
-0.69602889 0.076142758 1.8680001
-0.6850512 0.075208485 1.868
-0.67319763 0.074799746 1.868
-0.66420537 0.074799739 1.868
-0.65398681 0.075208478 1.868
-0.64417708 0.075208485 1.868
-0.63436729 0.075208485 1.868
-0.62128747 0.078478418 1.868
-0.61474764 0.076843455 1.868
-0.60275787 0.077388451 1.868
-0.59708995 0.075862475 1.868
-0.71611565 0.085018285 1.868
-0.7063058 0.085018285 1.868
-0.69649595 0.085018277 1.868
-0.68603224 0.085345283 1.868
-0.6719715 0.085018277 1.868
-0.66543162 0.085018292 1.868
-0.65305257 0.084551163 1.8680001
-0.64417708 0.085018277 1.868
-0.63436723 0.085018292 1.868
-0.62362313 0.085485429 1.8680001
-0.6147477 0.085018277 1.868
-0.60452908 0.085427031 1.868
-0.59621799 0.086108267 1.868
-0.58466429 0.086980246 1.868
-0.7063058 0.094828092 1.868
-0.69690466 0.094419353 1.868
-0.68505114 0.094174102 1.868
-0.67319769 0.09441936 1.868
-0.66420537 0.095236838 1.868
-0.65398681 0.094828099 1.868
-0.64417708 0.094828099 1.868
-0.63436723 0.094828099 1.868
-0.62455738 0.094828092 1.868
-0.61474764 0.094828106 1.868
-0.60493779 0.094828092 1.868
-0.59512794 0.094828092 1.868
-0.58531827 0.094828092 1.868
-0.71742356 0.10594586 1.868
-0.7063058 0.10463789 1.868
-0.69976592 0.10463789 1.868
-0.68435055 0.10463788 1.8680001
-0.67319763 0.10504663 1.868
-0.66379666 0.10463789 1.868
-0.65398675 0.10463789 1.868
-0.64417702 0.10463789 1.868
-0.63436723 0.10463789 1.868
-0.62455738 0.10463789 1.868
-0.61474764 0.10463789 1.868
-0.60493779 0.1046379 1.868
-0.59512794 0.1046379 1.868
-0.58531827 0.1046379 1.868
-0.71611565 0.11444769 1.868
-0.70630568 0.11444769 1.868
-0.69894844 0.11363021 1.868
-0.6850512 0.11117776 1.868
-0.67229843 0.11313971 1.868
-0.66379672 0.11444769 1.868
-0.65398681 0.11444769 1.868
-0.64417702 0.11444769 1.868
-0.63436723 0.1144477 1.868
-0.62455738 0.11444769 1.868
-0.61474758 0.11444769 1.868
-0.60493785 0.1144477 1.868
-0.595128 0.1144477 1.868
-0.58531821 0.11444769 1.868
-0.72551662 0.12466624 1.868
-0.71611565 0.1242575 1.868
-0.70677292 0.12332322 1.8680001
-0.69976592 0.12262253 1.868
-0.68014628 0.1242575 1.868
-0.67251647 0.12316753 1.868
-0.66379666 0.1242575 1.868
-0.65398687 0.12425748 1.868
-0.64417702 0.12425748 1.868
-0.63436723 0.12425748 1.868
-0.62414867 0.12384876 1.868
-0.61540157 0.12229554 1.868
-0.60493785 0.12332323 1.8680001
-0.595128 0.1242575 1.868
-0.58531821 0.1242575 1.868
-0.57591712 0.12384876 1.868
-0.73246527 0.13079736 1.868
-0.72538042 0.13297734 1.868
-0.71693313 0.13161483 1.868
-0.66134417 0.13324982 1.868
-0.65398675 0.1340673 1.868
-0.6437099 0.13313304 1.8680001
-0.63436723 0.1340673 1.868
-0.62259549 0.13472128 1.868
-0.61801755 0.13570227 1.868
-0.60602778 0.13515729 1.868
-0.595128 0.13313304 1.8680001
-0.58625251 0.13360018 1.8680001
-0.57714337 0.13079736 1.868
-0.66052669 0.14060716 1.868
-0.65398681 0.14224213 1.868
-0.63491225 0.14333211 1.868
-0.62128747 0.1438771 1.868
-0.6163826 0.14469457 1.868
-0.60657275 0.14714703 1.868
-0.58695316 0.14060716 1.868
-0.63390011 0.15275262 1.8680001
-0.62455738 0.1536869 1.868
-0.61474764 0.1536869 1.868
-0.60657275 0.15532187 1.868
-0.63436723 0.16022678 1.868
-0.62455738 0.16349672 1.868
-0.61474758 0.1634967 1.868
-0.60711777 0.16131675 1.868
-0.62782735 0.17003657 1.868
-0.7063058 0.31391367 1.868
-0.73464525 0.32317853 1.868
-0.72592533 0.3237235 1.868
-0.73328274 0.33435076 1.868
-0.72592539 0.33353329 1.868
-0.73464519 0.34552303 1.868
0.72323668 -0.60817629 1.8780001
0.68707484 -0.58187681 1.8780001
0.70445144 -0.5560469 1.8780003
0.72652411 -0.55228984 1.8780001
0.71666181 -0.53749633 1.8780001
0.72762001 -0.53585261 1.8780001
0.74953622 -0.53256518 1.8780001
0.7577548 -0.53585261 1.8780001
0.62132609 -0.52270287 1.8780001
0.69693714 -0.52927774 1.8780001
0.70679951 -0.52763402 1.8780001
0.71255249 -0.52599031 1.8780001
0.58187681 -0.51777172 1.8780001
0.59502661 -0.516128 1.8780001
0.62461352 -0.516128 1.8780001
0.71271694 -0.5167855 1.8780001
0.72898972 -0.51694983 1.8780001
0.7347427 -0.51284057 1.8780001
0.63776326 -0.50955313 1.8780001
0.64652979 -0.50845736 1.8780001
0.65502226 -0.50544387 1.8780001
0.66406274 -0.50462198 1.8780001
0.69255394 -0.50736153 1.8780001
0.72981155 -0.50626576 1.8780001
0.65748787 -0.49804708 1.8780001
0.6640628 -0.49640337 1.878
0.68337649 -0.49681431 1.8780001
0.69036233 -0.4964034 1.8780001
0.72981155 -0.49640337 1.8780001
0.55228984 -0.48982847 1.8780001
0.65748787 -0.48654103 1.8780001
0.66365182 -0.48654103 1.8780001
0.74624884 -0.4832536 1.8780001
0.69693714 -0.47174758 1.8780001
0.72981155 -0.47667873 1.8780001
0.73638642 -0.47503504 1.8780001
0.74624884 -0.47503501 1.8780001
0.75470227 -0.4762091 1.8780003
0.61803859 -0.46352896 1.8780001
0.74624878 -0.4668164 1.8780001
0.69693714 -0.45695409 1.8780001
0.26587164 -0.30614281 1.8780001
0.25751609 -0.29532167 1.8780001
0.24655797 -0.28929466 1.8780001
0.258064 -0.28929466 1.8780001
0.26546073 -0.28354165 1.8780001
0.27395332 -0.28381562 1.8780001
0.21368359 -0.27655584 1.8780001
0.22518961 -0.27614492 1.8780001
0.23490252 -0.27584606 1.8780001
0.24491423 -0.27285749 1.8780001
0.26628259 -0.27614489 1.878
0.27614495 -0.27778864 1.8780001
0.26587164 -0.26587164 1.8780001
0.27573401 -0.26587164 1.8780001
-0.27943236 -0.21368356 1.8780001
-0.66406274 -0.063283212 1.8780001
-0.6640628 -0.055886474 1.878
-0.65420043 -0.055475544 1.8780001
-0.68049997 -0.042736713 1.8780001
-0.67282933 -0.044928338 1.8780001
-0.6640628 -0.046024151 1.878
-0.6944716 -0.035339974 1.8780001
-0.68331778 -0.035222571 1.8780003
-0.67392516 -0.036161833 1.878
-0.66241908 -0.036161833 1.8780001
-0.62132609 -0.034518115 1.8780001
-0.61146373 -0.032874394 1.8780001
-0.70392299 -0.026299514 1.8780001
-0.69364971 -0.027943235 1.8780001
-0.68247247 -0.027614493 1.8780001
-0.6739251 -0.026299516 1.878
-0.66570652 -0.026299516 1.8780001
-0.62351775 -0.025203703 1.8780001
-0.61428159 -0.025360249 1.8780003
-0.60620385 -0.026957003 1.8780001
-0.70351201 -0.016437199 1.878
-0.69167727 -0.016437199 1.8780001
-0.68049997 -0.019724637 1.8780001
-0.67351413 -0.016848128 1.8780001
-0.6665284 -0.016437197 1.8780001
-0.650913 -0.014793478 1.8780001
-0.64433813 -0.014793478 1.8780001
-0.63447583 -0.016437197 1.878
-0.62461352 -0.016437197 1.878
-0.61569047 -0.016906833 1.8780003
-0.60160142 -0.018080916 1.8780001
-0.59831399 -0.019724637 1.8780001
-0.70351201 -0.0065748789 1.878
-0.69233477 -0.0052599031 1.8780001
-0.68707484 -0.0049311593 1.8780001
-0.67195266 -0.0065748789 1.8780001
-0.66735023 -0.0049311593 1.8780001
-0.650913 -0.0098623186 1.8780001
-0.64762557 -0.0082185986 1.8780001
-0.63283211 -0.0065748789 1.8780001
-0.62502444 -0.0061639491 1.8780001
-0.61475116 -0.0065748794 1.878
-0.60653257 -0.0049311593 1.8780001
-0.72652411 0.0054790662 1.878
-0.71572262 0.0046963426 1.8780003
-0.70241624 0.0043832529 1.878
-0.69364971 0.0049311593 1.8780001
-0.68378735 0.0049311593 1.8780001
-0.6739251 0.0049311593 1.8780001
-0.66439152 0.0059173908 1.8780001
-0.65420049 0.0049311593 1.8780001
-0.64696807 0.0052599031 1.8780001
-0.63365394 0.0041092993 1.8780001
-0.62420261 0.0036983693 1.8780001
-0.61475122 0.0049311593 1.8780001
-0.60488892 0.0049311593 1.8780001
-0.59831399 0.0065748794 1.8780001
-0.71447021 0.016802469 1.878
-0.70351207 0.016437197 1.878
-0.69364971 0.016437197 1.878
-0.68472666 0.015967565 1.8780003
-0.67589754 0.015779709 1.8780001
-0.66324091 0.013971617 1.8780001
-0.65354294 0.014464733 1.8780001
-0.64480776 0.017376466 1.8780003
-0.63406491 0.016848126 1.8780001
-0.62461358 0.016906833 1.8780003
-0.61475116 0.016437197 1.878
-0.60488886 0.016437197 1.878
-0.59831399 0.016437199 1.8780001
-0.71403188 0.02597077 1.8780001
-0.70304245 0.025360249 1.8780003
-0.69364977 0.026299516 1.878
-0.68419838 0.026710447 1.8780001
-0.67556882 0.026299518 1.8780001
-0.64269447 0.026299518 1.8780001
-0.63447583 0.026299516 1.878
-0.62461358 0.026299516 1.878
-0.61475122 0.024655795 1.8780001
-0.60488886 0.026299516 1.878
-0.59831399 0.026299518 1.8780001
-0.57530189 0.029586956 1.8780001
-0.71337438 0.032874394 1.8780001
-0.70022458 0.036161836 1.8780001
-0.69364971 0.036161833 1.878
-0.68378735 0.036161836 1.878
-0.67486441 0.036631465 1.8780003
-0.64269441 0.036161833 1.8780001
-0.63447583 0.036161836 1.878
-0.62461352 0.036161836 1.878
-0.60379308 0.035066023 1.8780001
-0.59612238 0.037257649 1.8780001
-0.58845168 0.039449275 1.8780001
-0.70022458 0.046024151 1.8780001
-0.69271052 0.045554522 1.8780003
-0.68312997 0.044051688 1.8780001
-0.6745826 0.044709176 1.8780001
-0.64236563 0.046681639 1.8780001
-0.63447583 0.046024151 1.878
-0.62555283 0.046493787 1.8780003
-0.60160148 0.046024155 1.8780001
-0.59502655 0.046024151 1.878
-0.58516425 0.04643508 1.8780001
-0.57661688 0.046681639 1.8780001
-0.71008694 0.057530191 1.8780001
-0.70304239 0.056825746 1.8780003
-0.69323879 0.056297403 1.8780001
-0.68707484 0.05588647 1.8780001
-0.67063767 0.052599031 1.8780001
-0.65420043 0.059173912 1.8780001
-0.6410507 0.054242752 1.8780001
-0.63400626 0.054947209 1.8780003
-0.62420261 0.055475548 1.8780001
-0.61522079 0.056825742 1.8780003
-0.60488886 0.055886474 1.878
-0.59502655 0.055886474 1.878
-0.58516425 0.055886474 1.878
-0.57530195 0.055886477 1.8780003
-0.710087 0.065748796 1.8780001
-0.70351201 0.065748788 1.878
-0.69255394 0.063557163 1.8780001
-0.65420043 0.06246135 1.8780001
-0.64433813 0.06903623 1.8780001
-0.63316089 0.067063771 1.8780001
-0.62461358 0.065748796 1.878
-0.61475116 0.065748796 1.878
-0.60529977 0.065337867 1.8780001
-0.59502655 0.065748788 1.878
-0.58516431 0.065748796 1.878
-0.71008694 0.072323665 1.8780001
-0.70351207 0.072323665 1.8780001
-0.63118839 0.075611107 1.8780001
-0.62570941 0.074515298 1.8780001
-0.61343622 0.074296132 1.8780001
-0.60708046 0.073419482 1.8780001
-0.59408736 0.075141475 1.8780003
-0.58516425 0.075611107 1.878
-0.63118839 0.083829701 1.8780001
-0.61146373 0.082185984 1.8780001
-0.59436911 0.083500959 1.8780001
-0.58434236 0.083007842 1.8780001
-0.57749355 0.0832818 1.8780001
0.61306715 -0.64776909 1.8880001
0.55853558 -0.63289684 1.8880001
0.66429383 -0.63454932 1.8880001
0.55743396 -0.62573618 1.8880002
0.56184053 -0.6246345 1.8880001
0.5535782 -0.61141473 1.8880001
0.64776909 -0.61141473 1.8880001
0.71717292 -0.61141473 1.8880001
0.7237829 -0.61416882 1.8880002
0.73322558 -0.61377543 1.8880002
0.74361253 -0.6158213 1.8880002
0.56845045 -0.60149986 1.8880001
0.57175535 -0.60149986 1.8880001
0.60397857 -0.60397857 1.8880001
0.61141473 -0.60149986 1.8880001
0.65548068 -0.6037032 1.8880002
0.71717292 -0.60810977 1.8880001
0.73369765 -0.6067878 1.8880001
0.74196005 -0.60810977 1.8880001
0.60810977 -0.59819496 1.8880001
0.61471963 -0.59819496 1.8880002
0.63675261 -0.59709334 1.8880002
0.64336252 -0.59489 1.8880002
0.65603143 -0.59571624 1.8880001
0.68610644 -0.59555101 1.8880001
0.69309407 -0.59489006 1.8880002
0.73416984 -0.59489006 1.8880002
0.65603149 -0.58828008 1.8880001
0.66759878 -0.58828008 1.8880001
0.6775136 -0.58167022 1.8880001
0.73700261 -0.58828008 1.8880001
0.74361253 -0.58828008 1.8880001
0.6775136 -0.57506031 1.8880001
0.68412352 -0.57547343 1.8880002
0.68522519 -0.56624717 1.8880002
0.55853558 -0.55192572 1.8880001
0.56184053 -0.55192572 1.8880001
0.55743396 -0.54421419 1.8880002
0.60397857 -0.53374851 1.8880001
0.61471963 -0.53374851 1.8880002
0.62132955 -0.53374851 1.8880001
0.63344765 -0.5331977 1.8880002
0.64281166 -0.53374851 1.8880001
0.70395315 -0.53870595 1.8880002
0.5420109 -0.52548611 1.8880001
0.56646746 -0.50499552 1.8880001
0.63496244 -0.50565648 1.8880002
0.29215708 -0.39593235 1.8880001
0.056184053 -0.37593743 1.8880001
0.095843382 -0.35362908 1.8880002
0.20449345 -0.35321593 1.8880002
0.10575822 -0.34619293 1.8880001
0.11567307 -0.34276998 1.8880002
0.19499172 -0.34371424 1.8880002
0.20490657 -0.34371424 1.8880002
0.11567307 -0.33379936 1.8880002
0.12558788 -0.33379936 1.8880002
0.13550271 -0.33379936 1.8880002
0.14541757 -0.33379936 1.8880002
0.15367991 -0.33379942 1.8880002
0.16524723 -0.33379939 1.8880002
0.17516205 -0.33379936 1.8880002
0.18507691 -0.33379936 1.8880002
-0.1718571 -0.30074993 1.8880001
-0.17350958 -0.28422523 1.8880002
-0.14596838 -0.2853269 1.8880002
-0.23417893 -0.27336612 1.8880002
-0.17474894 -0.27389726 1.8880002
-0.26770049 -0.26274306 1.8880001
-0.17681453 -0.26439553 1.8880002
-0.15863733 -0.26770049 1.8880001
-0.26770049 -0.25448072 1.8880002
-0.17681453 -0.25778565 1.8880001
-0.27100545 -0.24621835 1.8880001
-0.26770049 -0.24621835 1.8880001
-0.6775136 -0.13880767 1.8880001
-0.65768391 -0.10245328 1.8880001
-0.61692297 -0.10355493 1.8880002
-0.60810977 -0.10245328 1.8880001
-0.66264135 -0.09584339 1.8880001
-0.65768391 -0.097495861 1.8880001
-0.62298203 -0.095843397 1.8880002
-0.6158213 -0.096394226 1.8880002
-0.67090368 -0.089233495 1.8880001
-0.6659463 -0.089233495 1.8880001
-0.62369025 -0.085456423 1.8880002
-0.61802459 -0.085928552 1.8880002
-0.67090368 -0.072708778 1.8880001
-0.66495484 -0.074030757 1.8880001
-0.65272653 -0.076013722 1.8880002
-0.64446414 -0.076013729 1.8880002
-0.63388836 -0.075352736 1.8880001
-0.62463456 -0.076013729 1.8880002
-0.61802459 -0.072708778 1.8880001
-0.67354769 -0.065437891 1.8880001
-0.66429383 -0.067751363 1.8880001
-0.65437901 -0.064776905 1.8880001
-0.64446408 -0.066098884 1.8880002
-0.63124436 -0.066098884 1.8880001
-0.62463456 -0.066098884 1.8880002
-0.61513281 -0.065685764 1.8880002
-0.6067878 -0.065437898 1.8880001
-0.6830219 -0.055082407 1.8880002
-0.67641199 -0.05838735 1.8880002
-0.65272653 -0.057010289 1.8880001
-0.64446414 -0.056184053 1.8880002
-0.63521034 -0.056845047 1.8880001
-0.62529552 -0.058167018 1.8880001
-0.61471963 -0.059488997 1.8880002
-0.70477939 -0.043790512 1.8880001
-0.69403833 -0.042964276 1.8880002
-0.68346256 -0.046930213 1.8880001
-0.6775136 -0.049574167 1.8880001
-0.65272653 -0.045442987 1.8880001
-0.64446408 -0.046269223 1.8880002
-0.63454932 -0.044616748 1.8880001
-0.62595648 -0.045608234 1.8880001
-0.61471963 -0.046269227 1.8880002
-0.70395321 -0.037676368 1.8880001
-0.69321209 -0.037180625 1.8880001
-0.68742841 -0.039659332 1.8880001
-0.67090368 -0.036354389 1.8880002
-0.6638217 -0.036354389 1.8880002
-0.65437895 -0.036354385 1.8880002
-0.64446414 -0.036354389 1.8880002
-0.63454932 -0.036354389 1.8880002
-0.6246345 -0.036826529 1.8880002
-0.61471963 -0.036767505 1.8880002
-0.7017498 -0.025337908 1.8880002
-0.69337738 -0.025117576 1.8880001
-0.68742841 -0.024787083 1.8880001
-0.67090368 -0.028092027 1.8880001
-0.66388071 -0.026026437 1.8880002
-0.65479207 -0.026439555 1.8880002
-0.64405102 -0.026439553 1.8880002
-0.63496244 -0.026852675 1.8880002
-0.6246345 -0.0297445 1.8880001
-0.61471963 -0.026439555 1.8880001
-0.59489006 -0.026439555 1.8880002
-0.58497518 -0.024787081 1.8880002
-0.70064819 -0.016524721 1.8880002
-0.69238585 -0.016524721 1.8880001
-0.68522513 -0.015423073 1.8880002
-0.66388071 -0.016524723 1.8880002
-0.65570098 -0.017846702 1.8880001
-0.64694285 -0.017350957 1.8880001
-0.6127367 -0.015863732 1.8880001
-0.60535562 -0.015423073 1.8880002
-0.59489006 -0.016524719 1.8880002
-0.58497518 -0.016524721 1.8880002
-0.72047794 -0.0066098887 1.8880002
-0.70064819 -0.0082623605 1.8880001
-0.69514 -0.0088131856 1.8880002
-0.68412346 -0.0066098887 1.8880002
-0.67420864 -0.0082623605 1.8880001
-0.66429383 -0.0066098892 1.8880002
-0.65548062 -0.0055082403 1.8880002
-0.64446408 -0.0066098887 1.8880002
-0.6362018 -0.0066098887 1.8880001
-0.6246345 -0.0099148331 1.8880001
-0.61141473 -0.0099148331 1.8880001
-0.60386056 -0.0070820241 1.8880002
-0.59489006 -0.0066098892 1.8880002
-0.5859195 -0.0061377538 1.8880002
-0.73039269 0.0033049444 1.8880002
-0.72047788 0.0049574166 1.8880001
-0.71428114 0.0057836529 1.8880002
-0.6659463 0 1.8880001
-0.64446414 0.0049574166 1.8880004
-0.63289684 0.0099148331 1.8880001
-0.6279394 0.0066098887 1.8880002
-0.60149986 0 1.8880001
-0.59489012 0.0049574166 1.8880004
-0.58527565 0.005408091 1.8880004
-0.72047788 0.013219777 1.8880001
-0.71717292 0.013219777 1.8880001
-0.64446414 0.013219777 1.8880002
-0.6279394 0.01487225 1.8880001
-0.59489006 0.016524723 1.8880002
-0.58497518 0.016524721 1.8880002
-0.5853883 0.026026435 1.8880002
-0.5853883 0.036767505 1.8880002
-0.58497512 0.042964276 1.8880001
-0.58167022 0.059488997 1.8880001
0.67647469 -0.76789016 1.899
0.66400886 -0.75210017 1.899
0.67148834 -0.75126916 1.899
0.59503174 -0.74794495 1.899
0.60832852 -0.74129653 1.899
0.66483992 -0.74794501 1.899
0.60595411 -0.73464817 1.8990002
0.61165273 -0.73132396 1.899
0.64157057 -0.73298603 1.899
0.65154314 -0.73132396 1.899
0.60500431 -0.72633767 1.899
0.61165273 -0.72633767 1.899
0.60832852 -0.71137875 1.899
0.61165273 -0.71304083 1.899
0.62827373 -0.71470296 1.899
0.63270605 -0.71691912 1.899
0.53478062 -0.70473027 1.899
0.57841074 -0.70306826 1.899
0.60832852 -0.70306826 1.899
0.61364728 -0.7040655 1.899
0.53519613 -0.69475776 1.8989999
0.54184455 -0.69309568 1.899
0.56843817 -0.69475782 1.899
0.5759176 -0.69226456 1.899
0.58505917 -0.69309562 1.899
0.59702629 -0.69409293 1.899
0.60500431 -0.69475776 1.8989999
0.614977 -0.69475776 1.8989999
0.62494951 -0.69517326 1.899
0.63492215 -0.69475776 1.899
0.64489478 -0.69143361 1.899
0.65154314 -0.69143355 1.899
0.53602719 -0.68727827 1.899
0.54184455 -0.68478513 1.899
0.56843817 -0.68478513 1.899
0.57575136 -0.68545002 1.899
0.5846436 -0.68478513 1.899
0.64655685 -0.68478513 1.899
0.57841074 -0.67481256 1.899
0.58505917 -0.67481256 1.8989999
0.57467097 -0.66525549 1.899
0.64157057 -0.66151571 1.899
0.29518896 -0.65420252 1.899
0.55735749 -0.65265125 1.899
0.56511402 -0.65486735 1.8989999
0.57425547 -0.65652943 1.899
0.61663902 -0.65486735 1.899
0.6432327 -0.65486735 1.899
0.66539395 -0.65431333 1.899
0.29252958 -0.64821893 1.899
0.54475325 -0.64447922 1.899
0.55561626 -0.64394498 1.8990002
0.56606382 -0.64441985 1.8990002
0.57342446 -0.64489472 1.899
0.61539245 -0.64447922 1.899
0.66594803 -0.64267862 1.899
0.67647469 -0.64489472 1.899
0.68146092 -0.64489472 1.899
0.5451687 -0.63492221 1.8989999
0.57508647 -0.63492221 1.8989999
0.54564369 -0.62494957 1.8990002
0.57508659 -0.62827373 1.899
0.58173496 -0.62827373 1.899
0.55447656 -0.61564177 1.899
0.55466646 -0.6045295 1.8990002
0.56511396 -0.60168016 1.899
0.5950318 -0.59503174 1.899
0.6055584 -0.59613985 1.899
0.61553097 -0.59558582 1.899
0.5651139 -0.58505923 1.8989999
0.13850832 -0.47646865 1.899
0.14709584 -0.47702268 1.899
0.16668488 -0.47631037 1.8990002
0.25762546 -0.47536054 1.899
0.26261178 -0.47702265 1.899
-0.054849297 -0.43214595 1.899
-0.046538796 -0.43214595 1.899
-0.0062328745 -0.40513682 1.899
-0.27549309 -0.36524647 1.899
-0.28546566 -0.35527387 1.899
-0.27590859 -0.35568941 1.8989999
-0.26926017 -0.35568938 1.899
-0.35236517 -0.34239256 1.899
-0.34530127 -0.34530124 1.899
-0.30250219 -0.34239256 1.899
-0.28588119 -0.34571674 1.8989999
-0.27590859 -0.34571674 1.8989999
-0.26926017 -0.3457168 1.899
-0.35236517 -0.33740628 1.899
-0.34654781 -0.33823732 1.899
-0.33241996 -0.33906838 1.899
-0.30416429 -0.33906838 1.899
-0.28588119 -0.3357442 1.8989999
-0.27590859 -0.33574417 1.8989999
-0.26593599 -0.33408207 1.899
-0.28588119 -0.32577154 1.8989999
-0.27590859 -0.32577157 1.8989999
-0.26926017 -0.32577157 1.899
-0.0066483994 -0.32909578 1.899
-0.28588116 -0.31579897 1.8989999
-0.27701664 -0.31635302 1.899
-0.26926017 -0.31912318 1.899
-0.29419166 -0.3058264 1.899
-0.28588116 -0.3058264 1.8989999
-0.2784017 -0.30582637 1.899
-0.28920537 -0.29751587 1.899
-0.68395406 -0.13379905 1.899
-0.67481261 -0.13724196 1.8990002
-0.70639241 -0.12299539 1.899
-0.69309562 -0.12465749 1.899
-0.68589324 -0.12631959 1.899
-0.67481256 -0.12798169 1.899
-0.70605999 -0.11701184 1.899
-0.69380802 -0.11587211 1.8990002
-0.68520063 -0.11634699 1.899
-0.67481256 -0.11634699 1.899
-0.66483992 -0.11302279 1.899
-0.65353769 -0.11501731 1.899
-0.64489472 -0.11385384 1.899
-0.63824636 -0.11302279 1.899
-0.62494957 -0.11302279 1.899
-0.61497694 -0.11435248 1.899
-0.60500437 -0.1146849 1.899
-0.59170753 -0.11468489 1.899
-0.58505917 -0.1146849 1.899
-0.69475776 -0.10637438 1.8989999
-0.68677968 -0.10703924 1.899
-0.67315042 -0.1063744 1.899
-0.66525543 -0.10678991 1.899
-0.65486735 -0.10637439 1.8989999
-0.64584458 -0.1058995 1.8990002
-0.63492215 -0.10305019 1.899
-0.62550354 -0.1063744 1.899
-0.614977 -0.10732416 1.8990002
-0.60541981 -0.10595886 1.899
-0.5933696 -0.10554333 1.899
-0.58505923 -0.10637438 1.8989999
-0.69475776 -0.096401796 1.8989999
-0.68677968 -0.095736958 1.899
-0.67315042 -0.096401796 1.899
-0.66550475 -0.095736958 1.899
-0.65486735 -0.096401796 1.8989999
-0.64489472 -0.096401796 1.8989999
-0.63492221 -0.096401788 1.8989999
-0.61364728 -0.096401788 1.899
-0.59336966 -0.097232841 1.899
-0.6947577 -0.086904079 1.8990002
-0.68700135 -0.087537259 1.899
-0.67414773 -0.085764356 1.899
-0.66442442 -0.086013667 1.899
-0.65486741 -0.086429186 1.8989999
-0.64489478 -0.086429186 1.8989999
-0.63533771 -0.086844712 1.899
-0.61630666 -0.087758876 1.899
-0.69428289 -0.075506829 1.8990002
-0.68573493 -0.075981714 1.8990002
-0.66373187 -0.077564657 1.899
-0.64157057 -0.078118697 1.899
-0.63658428 -0.076456591 1.899
-0.62162536 -0.078118697 1.899
-0.61497688 -0.076041065 1.899
-0.58616728 -0.074240461 1.899
-0.69475776 -0.066483997 1.8989999
-0.68520069 -0.066899516 1.899
-0.66317785 -0.069808193 1.899
-0.65652943 -0.069808193 1.899
-0.64157057 -0.066483997 1.899
-0.63741529 -0.066483997 1.899
-0.58505917 -0.068146095 1.899
-0.63625187 -0.055181712 1.899
-0.62428468 -0.054516878 1.899
-0.61663902 -0.054849293 1.899
-0.64157057 -0.049862996 1.899
-0.63575315 -0.049031947 1.899
-0.62494957 -0.0465388 1.899
0.56363416 -0.79755354 1.9090002
0.65831584 -0.79866743 1.909
0.66499925 -0.79699659 1.909
0.59816515 -0.78697145 1.909
0.60401309 -0.78780687 1.909
0.61403823 -0.78780687 1.909
0.63492388 -0.78362983 1.9090002
0.64411354 -0.7827943 1.909
0.66499925 -0.78864229 1.909
0.6059624 -0.77416158 1.9090002
0.61654449 -0.77360463 1.909
0.62824047 -0.77527547 1.909
0.63492393 -0.77728051 1.909
0.6424427 -0.77611095 1.909
0.66332835 -0.77193373 1.909
0.54803956 -0.76190865 1.909
0.55405468 -0.76391363 1.909
0.56140637 -0.76357949 1.909
0.58646917 -0.76190865 1.909
0.59482342 -0.76525027 1.9090002
0.60443074 -0.76566797 1.9090002
0.61582839 -0.76477301 1.9090002
0.66633594 -0.76458198 1.909
0.67502439 -0.76525033 1.9090002
0.30409512 -0.75522524 1.909
0.54469782 -0.75522518 1.9090002
0.55430526 -0.75480747 1.9090002
0.5641911 -0.75411129 1.9090002
0.57477325 -0.75466824 1.9090002
0.58479834 -0.75522524 1.9090002
0.60150683 -0.75522518 1.9090002
0.61529136 -0.75522524 1.9090002
0.62155706 -0.75188351 1.909
0.6549741 -0.75856698 1.909
0.66834092 -0.75856698 1.909
0.67613828 -0.75578225 1.9090002
0.54469788 -0.74687099 1.9090002
0.55472302 -0.74687099 1.9090002
0.5736593 -0.74742794 1.9090002
0.59231716 -0.74436474 1.909
0.6048485 -0.74185842 1.909
0.61582839 -0.74567759 1.9090002
0.62489879 -0.74185842 1.9090002
0.63492393 -0.74185842 1.9090002
0.53634357 -0.73517507 1.9090002
0.54469782 -0.73517507 1.9090002
0.56433034 -0.73517507 1.9090002
0.60401309 -0.73433959 1.909
0.6173799 -0.73601043 1.909
0.62489885 -0.73517507 1.9090002
0.63492393 -0.73517507 1.9090002
0.52130592 -0.7284916 1.909
0.53600943 -0.72514987 1.909
0.57143152 -0.72347903 1.909
0.59682846 -0.72448152 1.909
0.61535102 -0.72419512 1.9090002
0.63444656 -0.7261048 1.9090002
0.64494896 -0.72514993 1.9090002
0.52353376 -0.712897 1.9090002
0.53634357 -0.71679562 1.909
0.57276821 -0.7144565 1.909
0.58257055 -0.712897 1.9090002
0.59682846 -0.71512479 1.909
0.60484844 -0.71554244 1.9090002
0.63540125 -0.71417004 1.9090002
0.64494896 -0.71512479 1.9090002
0.65296906 -0.71579313 1.909
0.27736148 -0.70677054 1.909
0.28070319 -0.70677054 1.909
0.51712883 -0.70426428 1.909
0.52464765 -0.70509964 1.9090002
0.61821532 -0.7050997 1.909
0.64494896 -0.70509964 1.9090002
0.27736148 -0.69173288 1.909
0.28404489 -0.69340372 1.9090002
0.52512503 -0.69507462 1.9090002
0.53133106 -0.69507456 1.9090002
0.54720414 -0.69423914 1.909
0.5956589 -0.69423914 1.909
0.64561731 -0.69440621 1.909
0.53634357 -0.68504947 1.9090002
0.54517525 -0.68409473 1.9090002
0.29239917 -0.67335349 1.909
0.53634357 -0.67502439 1.9090002
0.54469782 -0.67502439 1.9090002
0.57477325 -0.67669523 1.9090002
0.29741171 -0.66165751 1.909
0.30075341 -0.66165751 1.909
0.29741174 -0.6549741 1.9090002
0.28404492 -0.64327812 1.9090002
0.29311526 -0.64542639 1.9090002
0.26566553 -0.63408846 1.909
0.27443749 -0.63492393 1.9090002
0.28404489 -0.63492393 1.9090002
0.27360204 -0.62531644 1.9090002
0.28404489 -0.6253165 1.9090002
0.2907283 -0.62322789 1.909
0.28499967 -0.61535102 1.9090002
0.15706012 -0.54803956 1.909
0.13199733 -0.48120546 1.909
-0.12406079 -0.4640792 1.9090002
-0.27335143 -0.45647684 1.909
-0.09289939 -0.4424417 1.909
-0.074352928 -0.43692786 1.909
-0.28571576 -0.41102967 1.909
-0.30075341 -0.40601712 1.909
-0.29311526 -0.40482366 1.9090002
-0.28571576 -0.40434629 1.9090002
-0.29323459 -0.3968274 1.909
-0.28571576 -0.39599198 1.909
-0.27067807 -0.34085387 1.909
-0.27067807 -0.3358413 1.909
-0.67168266 -0.14035159 1.909
-0.66499925 -0.14202246 1.9090002
-0.67301935 -0.13299985 1.909
-0.66541696 -0.13366818 1.9090002
-0.65564245 -0.13299985 1.909
-0.64428061 -0.13166316 1.909
-0.63325304 -0.13366818 1.9090002
-0.59482342 -0.13032648 1.909
-0.68504947 -0.12531392 1.9090002
-0.67406964 -0.12364308 1.9090002
-0.64494896 -0.12364308 1.9090002
-0.63492388 -0.12364307 1.9090002
-0.62489885 -0.12364307 1.9090002
-0.59482342 -0.12364308 1.9090002
-0.68304443 -0.11361796 1.909
-0.68463176 -0.10317513 1.9090002
-0.68371278 -0.094236068 1.909
-0.68463176 -0.083960325 1.9090002
-0.68504941 -0.076859206 1.909
0.65538722 -0.79654759 1.9200001
0.29912546 -0.78814518 1.9200001
0.5422349 -0.78534436 1.9200001
0.56262475 -0.78713691 1.9200001
0.60545295 -0.78550452 1.9200002
0.65580738 -0.78646469 1.9200001
0.60329235 -0.77806228 1.9200001
0.28232065 -0.76965988 1.9200001
0.29912546 -0.76293796 1.9200001
0.59152901 -0.76965988 1.9200001
0.29912546 -0.75789654 1.9200001
0.30360675 -0.75733638 1.9200001
0.26887685 -0.71588457 1.9200001
0.27307802 -0.71504426 1.9200001
0.27517864 -0.70538151 1.9200001
0.29576451 -0.70916259 1.9200001
0.27391827 -0.69571877 1.9200001
-0.2548728 -0.54447556 1.9200001
-0.26551586 -0.53439265 1.9200001
-0.25879392 -0.53439271 1.9200001
-0.26551586 -0.52430981 1.9200001
-0.29408401 -0.51422691 1.9200001
-0.27492654 -0.50212747 1.9200001
-0.28500941 -0.49607775 1.9200001
-0.27643895 -0.49658185 1.9200001
-0.30920833 -0.45541012 1.9200001
0.30464193 -0.80491394 1.931
-0.31097984 -0.61519927 1.9310001
-0.29504457 -0.60457581 1.9310001
-0.40562588 -0.59829819 1.9310001
-0.28281137 -0.59604472 1.9310001
-0.60167837 -0.55266523 1.9310001
-0.30759963 -0.54759496 1.9310001
-0.28393811 -0.54083455 1.9310001
-0.2754876 -0.54252464 1.9310001
-0.28345525 -0.52296764 1.9310001
-0.2754876 -0.52393347 1.9310001
-0.28393811 -0.51379281 1.931
-0.35506186 -0.67614645 1.9410002
-0.35506186 -0.66595334 1.9410002
-0.35506186 -0.65576017 1.9410002
-0.55340374 -0.6451422 1.9410001
-0.54703307 -0.64556694 1.9410002
-0.51645356 -0.64726579 1.9410001
-0.50965816 -0.64726579 1.9410001
-0.34656754 -0.64556694 1.9410002
-0.33977208 -0.64216924 1.9410001
-0.55269593 -0.63763899 1.9410002
-0.45189688 -0.63707268 1.9410001
-0.44849914 -0.63707268 1.9410001
-0.43490827 -0.63877153 1.9410001
-0.33637434 -0.63537389 1.9410002
-0.61498749 -0.62857836 1.9410001
-0.55043077 -0.62857836 1.9410001
-0.54703307 -0.62857836 1.9410001
-0.31655434 -0.6155538 1.9410002
-0.60649318 -0.58440799 1.9410001
-0.60708284 -0.73237199 1.9520001
-0.55312306 -0.73507714 1.9519999
-0.38611835 -0.73464996 1.9519999
-0.61163878 -0.72439903 1.9520001
-0.605232 -0.7239719 1.9519999
-0.55013323 -0.72781599 1.9520001
-0.54671621 -0.72269052 1.9520001
-0.60480481 -0.71414804 1.9519999
-0.55355018 -0.71243954 1.952
-0.51653302 -0.71357858 1.952
-0.3758674 -0.71414804 1.9519999
-0.56380111 -0.70645988 1.9520001
-0.55312312 -0.70432419 1.9519999
-0.50628203 -0.7044667 1.952
-0.37586743 -0.70731419 1.9520001
-0.51254648 -0.69706321 1.9520001
-0.62188971 -0.68510377 1.9520001
-0.58430296 -0.67656136 1.9519999
-0.57405204 -0.67656136 1.9519999
-0.56422818 -0.67613423 1.9519999
-0.55286688 -0.67587799 1.952
-0.60480487 -0.66631037 1.9519999
-0.59398443 -0.66687989 1.952
-0.58771992 -0.66972739 1.9520001
-0.56380111 -0.66631037 1.9519999
-0.55355018 -0.66631037 1.9519999
-0.59455389 -0.65776801 1.9520001
-0.5740521 -0.6560595 1.9519999
-0.56380111 -0.6560595 1.9519999
-0.55582815 -0.65833747 1.9520001
-0.60822183 -0.59113693 1.9520001
-0.61282039 -0.80534738 1.9640001
-0.61471128 -0.79348636 1.9640001
-0.60852289 -0.78214097 1.9640001
-0.61367989 -0.77698404 1.9640001
-0.60737693 -0.77583808 1.9640001
-0.5535152 -0.76667005 1.9640001
-0.61196089 -0.75291812 1.9640001
-0.6033659 -0.75291812 1.9640001
-0.59477097 -0.74397939 1.9640001
-0.59591699 -0.73687428 1.9640001
-0.58273804 -0.73572826 1.9640001
-0.57276785 -0.73435307 1.9640001
-0.58402723 -0.72498453 1.964
