# .PCD v0.7 - Point Cloud Data file format
VERSION 0.7
FIELDS x y z
SIZE 4 4 4
TYPE F F F
COUNT 1 1 1
WIDTH 1480
HEIGHT 1
VIEWPOINT 0 0 0 1 0 0 0
POINTS 1480
DATA ascii
0.27577731 0.70575267 1.6940001
0.53732103 0.7051596 1.6940001
0.5456239 0.70575267 1.6940001
0.24760652 0.71168339 1.6940001
0.25501987 0.71168345 1.6940001
0.2639159 0.71168345 1.6940001
0.54265857 0.71168339 1.6940001
0.60530484 0.63559496 1.702
0.61076701 0.64651918 1.702
0.56224614 0.65545726 1.702
0.58991152 0.6569469 1.702
0.59706199 0.65664905 1.702
0.60480827 0.65545732 1.7019999
0.61076701 0.65396762 1.702
0.55415934 0.66141599 1.702
0.55415934 0.67631269 1.702
0.55415934 0.68227142 1.702
0.56458706 0.68823016 1.702
0.51542777 0.69716823 1.702
0.55713868 0.69716817 1.702
0.56399119 0.69389093 1.7019999
0.61672568 0.69418883 1.702
0.53330386 0.70482939 1.702
0.56458712 0.7027545 1.7019999
0.53181422 0.71355462 1.702
0.54522127 0.71206492 1.702
0.48446667 0.50553048 1.719
0.48220986 0.51380551 1.7190001
0.49392393 0.52487469 1.7190001
0.51412791 0.55410606 1.7190001
0.52458817 0.55701965 1.719
0.53261244 0.55969441 1.7190001
0.49520013 0.56519848 1.7182729
0.50510061 0.56657243 1.7190001
0.51529163 0.56642002 1.718111
0.7613048 0.56721723 1.7190001
0.14825773 0.57356274 1.7110001
0.49581075 0.57534277 1.7175455
0.50553048 0.57473999 1.719
0.51455772 0.57473999 1.719
0.52531731 0.5764457 1.718111
0.75829566 0.57173085 1.7190001
0.49555945 0.58604622 1.7183332
0.50494468 0.58458686 1.7170002
0.51455778 0.58527184 1.7190001
0.52413434 0.58484453 1.7168667
0.52407205 0.59464961 1.715667
0.56180936 0.59478348 1.7126001
0.51468068 0.60607356 1.7174
0.5255 0.60510457 1.7190001
0.51496834 0.61559767 1.7160001
0.52566379 0.61507857 1.7179334
0.51485449 0.62593597 1.715
0.52476114 0.62594587 1.7139094
0.51461571 0.63434452 1.7142003
0.55109942 0.63496238 1.7110001
0.58443576 0.63538659 1.7121432
0.59265649 0.634588 1.7110002
0.60401297 0.63596076 1.7110002
0.61998689 0.63346481 1.7110001
0.62512136 0.6345346 1.7110002
0.63569283 0.63494575 1.715
0.64510721 0.63470614 1.7159232
0.54353261 0.64394569 1.7123336
0.56517643 0.64754194 1.7110003
0.5752672 0.64509887 1.7116157
0.58371288 0.64661002 1.7110002
0.61485243 0.64779854 1.7110002
0.62447953 0.64245021 1.7110001
0.63191307 0.64094037 1.7190001
0.64787143 0.64532852 1.7134618
0.65596408 0.64544964 1.715
0.54510927 0.65892327 1.7110002
0.56457746 0.65443063 1.7110002
0.59466463 0.65565586 1.7110003
0.61399668 0.65293306 1.7110002
0.64993793 0.65293306 1.7110001
0.65595686 0.65475047 1.7142
0.55349553 0.66671056 1.7110001
0.58441997 0.6645391 1.7110002
0.5900358 0.66191834 1.7110001
0.55382234 0.67526013 1.7110003
-0.46496493 0.465397 1.728
0.40489972 0.46669334 1.728
0.41138154 0.46885395 1.728
0.40533185 0.47339126 1.728
0.41138154 0.47187883 1.728
0.47429869 0.49789268 1.728
0.48095343 0.49910259 1.728
0.4749037 0.50515234 1.7279999
0.48095343 0.50515234 1.728
-0.17544214 0.51725185 1.728
-0.077134043 0.51422691 1.728
0.49343097 0.51460505 1.7279999
0.42953071 0.52330154 1.728
0.43255559 0.52330154 1.728
0.4821634 0.52390653 1.728
0.49574164 0.52330148 1.7279999
0.49557361 0.53338444 1.728
0.42650586 0.54145068 1.728
0.51271451 0.55959988 1.728
0.50716895 0.56363308 1.728
0.41936383 0.40720835 1.7360001
0.17451788 0.42587569 1.7360002
0.17422846 0.43455815 1.7360001
0.34946984 0.43759704 1.7360001
0.40113062 0.43759704 1.7360001
0.17473495 0.44519421 1.7360001
0.34609333 0.44333714 1.7360001
0.3540282 0.44519424 1.7360001
0.36263829 0.44570071 1.7360001
0.40113062 0.44519421 1.7360001
0.18385154 0.45431083 1.7360001
0.35554761 0.45279139 1.7360001
0.36162531 0.4588691 1.7360001
0.39809176 0.45279139 1.7360001
0.40113062 0.45583028 1.7360001
0.37681964 0.46532667 1.7360001
0.38593626 0.46494681 1.7360001
0.40492919 0.4626677 1.7360001
0.41328615 0.46494684 1.7360002
0.37985855 0.47102457 1.7360001
0.39505288 0.47203755 1.7360001
0.41683149 0.47406346 1.7360001
0.36567718 0.48672542 1.7360001
0.37310547 0.48453066 1.7360001
0.41362378 0.48284239 1.7360001
0.42645454 0.48520598 1.7360001
0.37378079 0.49457583 1.7360001
0.42746753 0.4963485 1.7360001
0.43455815 0.49715886 1.7360001
0.44215536 0.49229667 1.7360001
0.39353344 0.50445211 1.7360001
0.4041695 0.50532043 1.7360002
0.43516594 0.50384438 1.7360001
0.49685496 0.50293267 1.7360001
0.74756157 0.50749099 1.7360001
0.39707881 0.51458174 1.7360001
0.41126022 0.5150882 1.7360001
0.66652513 0.51762056 1.7360001
0.67462873 0.51660764 1.7360001
0.65740854 0.52369833 1.7360001
0.66551214 0.52572423 1.7360001
0.67462873 0.52572423 1.7360001
0.66551214 0.53484082 1.7360001
0.67419463 0.53397262 1.7360002
0.68374544 0.53614324 1.7360002
0.68526483 0.54091859 1.7360001
0.86607742 0.56421661 1.7360001
0.79444706 0.57391196 1.7360002
0.83872765 0.57738495 1.7360001
0.8443712 0.57434607 1.7360002
0.85305375 0.57391202 1.7360002
0.88127184 0.57738495 1.7360001
-0.47739395 0.36699113 1.7450001
0.39480999 0.38717344 1.7450001
0.37571859 0.39710096 1.7450001
0.3879371 0.39099172 1.7450001
0.39251903 0.39099172 1.7450001
0.36960936 0.40626487 1.7450002
0.3753792 0.40524662 1.745
0.3869189 0.40728307 1.7450002
0.42459255 0.40931946 1.7450001
0.33600852 0.4154287 1.7450001
0.38488251 0.41746515 1.7450002
0.39099172 0.41390139 1.7450001
0.40779215 0.41848332 1.7450001
0.4154287 0.41771966 1.7450001
0.4238289 0.41619235 1.7450001
0.33753583 0.42611986 1.7450001
0.35128161 0.4276472 1.7450001
0.40515408 0.42487025 1.7450002
0.41237411 0.42459258 1.7450002
-0.12523954 0.43222913 1.7450001
0.064147085 0.43986568 1.7450002
0.07432916 0.43986568 1.7450002
0.34669968 0.43604741 1.7450001
0.35331807 0.43681106 1.7450002
0.39432406 0.43486717 1.7450002
0.40483934 0.43497825 1.7450004
0.54677749 0.43986568 1.7450002
0.55655229 0.43864384 1.7450001
0.56510526 0.43681103 1.745
0.57426912 0.43681103 1.745
0.58190566 0.43833837 1.7450001
0.62925231 0.43833837 1.7450001
0.63230693 0.43681106 1.7450001
0.064147085 0.44444761 1.7450001
0.074838251 0.4429203 1.7450001
0.33906314 0.44902956 1.7450001
0.34364507 0.44902956 1.7450001
0.39442816 0.44635671 1.745
0.41542867 0.44597489 1.745
0.58037841 0.44597495 1.7450002
0.3534635 0.45557514 1.7450001
0.36461091 0.45486104 1.7450002
0.3963373 0.45437515 1.7450001
0.41542867 0.45513874 1.745
0.57488 0.45513877 1.7450001
0.61092454 0.45819342 1.7450001
0.41619235 0.46201169 1.7450001
0.58037835 0.46124804 1.7450001
0.74716073 0.50462371 1.7450001
-0.23334867 0.18422264 1.7540001
-0.49126035 0.26558763 1.7540001
-0.49126035 0.2717284 1.7540001
-0.33160076 0.27479875 1.7540001
-0.32622758 0.27556637 1.7540001
-0.47437328 0.28708029 1.7540001
-0.46669734 0.28708029 1.7540001
-0.32502136 0.28642234 1.7540001
-0.4672091 0.29577968 1.7540001
-0.47503126 0.30440599 1.7540001
0.38521427 0.38639519 1.7539999
0.39607868 0.3837972 1.7540001
0.40485117 0.3837972 1.7540001
0.58398575 0.38870975 1.7540001
0.36537489 0.39607865 1.7539999
0.37420225 0.39569485 1.7539999
0.38447946 0.39607865 1.7539999
0.39300829 0.39607868 1.7540001
0.35462856 0.40528983 1.7539999
0.42985281 0.41143057 1.7540001
0.57416058 0.42678243 1.7540001
0.72499281 0.48473582 1.7539999
0.73197794 0.48511964 1.7540001
-0.22837375 0.13887593 1.7630001
-0.2314599 0.1450482 1.7630002
-0.22760223 0.14504819 1.7630001
-0.21602923 0.14659125 1.7630001
-0.13270366 0.14813432 1.7630001
-0.23145989 0.15122046 1.7630001
-0.22605915 0.15276352 1.7630001
-0.21602923 0.15353505 1.7630001
-0.1944263 0.15739273 1.7630001
-0.13540402 0.15392083 1.7630002
-0.28701025 0.16665111 1.7630001
-0.23454601 0.17822412 1.7630001
-0.22837375 0.17899564 1.7630001
-0.24442165 0.18547653 1.7630004
-0.23454601 0.18516791 1.7630002
-0.22490184 0.18478215 1.7630002
-0.2175723 0.18671098 1.7630001
-0.24512705 0.19486718 1.7630002
-0.23454602 0.19380908 1.7630001
-0.26617888 0.20368472 1.7630001
-0.47217816 0.23454602 1.7630001
-0.46909204 0.23454602 1.7630001
-0.45829058 0.23454602 1.7630001
-0.32404384 0.25738338 1.7630001
0.49378109 0.31478545 1.7630001
0.44748911 0.34564677 1.7630001
0.67586279 0.42650342 1.7630001
0.64654458 0.44440296 1.7630001
0.70055193 0.46291977 1.7630001
0.73388213 0.46477142 1.7630001
-0.21447329 0.075331531 1.7720003
-0.20679241 0.076513194 1.7720001
-0.21403015 0.085301869 1.7720001
-0.20627543 0.085301869 1.7720002
-0.13855092 0.088920742 1.7720001
-0.21403013 0.096158482 1.7720002
-0.11373584 0.098226398 1.7720001
-0.14527169 0.10598111 1.7720002
-0.13958488 0.10701507 1.7720001
-0.1147698 0.10546414 1.7720002
-0.10856602 0.10546413 1.7720001
-0.04032452 0.10701507 1.7720001
-0.03412075 0.10546413 1.7720002
-0.22023392 0.1147698 1.7720001
-0.21403016 0.1147698 1.7720002
-0.20472449 0.1147698 1.7720002
-0.19852072 0.1147698 1.7720001
-0.17370564 0.1147698 1.7720001
-0.14423773 0.1147698 1.7720002
-0.13880941 0.11554527 1.7720001
-0.11632074 0.11166791 1.7720001
-0.10856602 0.11166791 1.7720001
-0.09926036 0.11787168 1.7720001
-0.22256033 0.12485092 1.7720001
-0.21403018 0.12407546 1.7720002
-0.20575845 0.1230415 1.7720002
-0.19852072 0.12407546 1.7720001
-0.17215469 0.12717734 1.7720001
-0.15470657 0.12446319 1.7720002
-0.14578864 0.12407546 1.7720002
-0.13535504 0.12435745 1.7720001
-0.1256264 0.12717734 1.7720001
-0.11476979 0.12717734 1.7720001
-0.10236225 0.1256264 1.7720001
-0.097709417 0.1256264 1.7720001
-0.055833954 0.12640187 1.7720001
-0.23535563 0.13687074 1.7720002
-0.22474575 0.13535504 1.7720001
-0.21403015 0.13493206 1.7720001
-0.20596524 0.13462187 1.7720002
-0.19619431 0.13725847 1.7720001
-0.18404526 0.13855092 1.7720001
-0.17409337 0.13454433 1.7720002
-0.16439997 0.13400149 1.7720002
-0.15478413 0.13400149 1.7720002
-0.14578864 0.13493207 1.7720001
-0.13493204 0.13493204 1.7719998
-0.12469584 0.13555244 1.7720002
-0.11539018 0.13555244 1.7720002
-0.10298262 0.13586263 1.7720002
-0.096440457 0.13535506 1.7720001
-0.084371299 0.1367932 1.7720002
-0.074057534 0.13687074 1.7720002
-0.065139607 0.13493206 1.7720001
-0.055833951 0.13493206 1.7720001
-0.048596218 0.13855092 1.7720001
-0.31639239 0.14702941 1.7720002
-0.30708674 0.1473396 1.7720001
-0.22294807 0.14578865 1.7720002
-0.21314389 0.14534554 1.7720003
-0.20472451 0.1462318 1.7720003
-0.19541883 0.14578864 1.7720002
-0.18572545 0.14578865 1.7720002
-0.1774279 0.14640903 1.7720002
-0.15199243 0.14889054 1.7720001
-0.14527169 0.14578867 1.7720002
-0.13507307 0.14550667 1.7720001
-0.12407546 0.14578865 1.7720002
-0.1147698 0.14578864 1.7720002
-0.10546414 0.14490241 1.7720003
-0.095770732 0.14617638 1.7720002
-0.08572486 0.14550665 1.7720001
-0.073928297 0.14475471 1.7720002
-0.065139614 0.14268677 1.7720001
-0.055833958 0.14423773 1.7720002
-0.048079237 0.14268677 1.7720001
-0.30398485 0.15509431 1.7720001
-0.29545468 0.15742072 1.7720001
-0.28589052 0.15612829 1.7720002
-0.2361311 0.15548205 1.7720002
-0.22422206 0.15598057 1.7720003
-0.21299617 0.15561131 1.7720002
-0.20472451 0.15509431 1.7720002
-0.19541883 0.15470657 1.7720002
-0.18650092 0.15470658 1.7720002
-0.17680751 0.15509433 1.7720003
-0.15199243 0.1581962 1.7720001
-0.14889054 0.15354337 1.7720001
-0.13027923 0.15199243 1.7720001
-0.094090551 0.15302639 1.7720001
-0.088403761 0.15354337 1.7720001
-0.071343385 0.15199243 1.7720001
-0.068241499 0.15199243 1.7720001
-0.30088297 0.16284902 1.7720001
-0.29467919 0.16439997 1.7720002
-0.28498581 0.16439997 1.7720002
-0.27761883 0.1636245 1.7720001
-0.24504903 0.16439997 1.7720002
-0.23574336 0.16439995 1.7720002
-0.22488678 0.16439995 1.7720001
-0.21403016 0.16439997 1.7720002
-0.20596524 0.16502035 1.7720002
-0.19231695 0.16129808 1.7720001
-0.18650091 0.16439997 1.7720002
-0.17473958 0.16439997 1.7720002
-0.16401222 0.16478769 1.7720002
-0.15509433 0.16439997 1.7720002
-0.29429147 0.17331788 1.7720002
-0.28468424 0.17473958 1.7720002
-0.27606788 0.17370562 1.7720002
-0.24476704 0.17539759 1.7720001
-0.23574336 0.17331789 1.7720002
-0.22457658 0.17494638 1.772
-0.21431215 0.1748336 1.7720001
-0.20472452 0.17525658 1.7720002
-0.18572545 0.17525658 1.7720002
-0.17459188 0.17569973 1.772
-0.16439995 0.17525658 1.7720001
-0.15509431 0.17525658 1.7720001
-0.14617638 0.17641978 1.7720002
-0.13855092 0.17784148 1.7720001
-0.31484145 0.18921506 1.7720001
-0.272966 0.18301129 1.7720001
-0.22023392 0.18301129 1.7720001
-0.2131439 0.18567006 1.7720003
-0.16439997 0.18611318 1.7720002
-0.15633507 0.18487243 1.7720002
-0.14578865 0.18301129 1.7720001
-0.3139109 0.19572902 1.7720002
-0.30212376 0.19603921 1.7720002
-0.28847542 0.19852072 1.7720001
-0.32569805 0.20472451 1.7720002
-0.31484145 0.20472452 1.7720001
-0.30437258 0.20472451 1.7720002
-0.29778108 0.20627543 1.7720001
-0.28847542 0.20162261 1.7720001
-0.32531032 0.21364242 1.7720002
-0.31550613 0.21270075 1.7720003
-0.30605277 0.21196222 1.7720001
-0.32531032 0.24504903 1.7720002
0.11476979 0.29700559 1.7720001
0.50793391 0.30476031 1.7720001
0.60486782 0.37843013 1.7720001
0.60435092 0.38359994 1.7720002
0.61378574 0.39355183 1.7720002
0.64519238 0.39393955 1.7720003
0.65346408 0.39600748 1.7720001
0.70412821 0.39393955 1.7720001
0.655532 0.4042792 1.7720002
0.663459 0.40600243 1.7720002
-0.17770553 0.028058767 1.7810001
-0.18160257 0.035073459 1.7810001
-0.17692611 0.035073459 1.7810001
-0.16523495 0.03741169 1.7810001
-0.33421108 0.046764612 1.7810001
-0.32423463 0.046764612 1.7810001
-0.22213191 0.044426378 1.7810001
-0.19485256 0.048323434 1.7810001
-0.18394081 0.045725398 1.7810001
-0.17458789 0.043023445 1.7810001
-0.16523497 0.043646973 1.7810001
-0.15650557 0.048635196 1.7810001
-0.1449703 0.049882252 1.7810001
-0.13717619 0.049882252 1.7810001
-0.12470564 0.049882255 1.7810001
-0.11535271 0.048323434 1.7810001
-0.33269683 0.055672158 1.7810003
-0.32298756 0.054870483 1.7810001
-0.22135249 0.056117535 1.7810001
-0.20576429 0.056117535 1.7810001
-0.19485258 0.056117535 1.7810001
-0.18446043 0.056637138 1.7810001
-0.1753673 0.056896944 1.7810001
-0.16484526 0.056507237 1.7810001
-0.15588205 0.056117535 1.7810001
-0.1449703 0.056117542 1.7810001
-0.13405855 0.056117535 1.7810001
-0.12470562 0.056117527 1.7810001
-0.11574242 0.055727825 1.7810001
-0.10599978 0.055338122 1.7810001
-0.097092234 0.057008296 1.7810003
-0.33358756 0.063911632 1.7810001
-0.22402474 0.066361211 1.7810003
-0.21511722 0.06547045 1.7810001
-0.20537458 0.065080754 1.7810001
-0.19485253 0.065470465 1.7810001
-0.18394081 0.065470457 1.7810001
-0.17458788 0.065470457 1.7810001
-0.16523497 0.065470457 1.7810001
-0.15588205 0.06547045 1.7810001
-0.1449703 0.065470457 1.7810001
-0.13405855 0.065470457 1.7810001
-0.12509532 0.065860152 1.7810001
-0.11535271 0.068588093 1.7810001
-0.10392135 0.067548886 1.7810001
-0.095513172 0.065753885 1.7810001
-0.085215509 0.066509664 1.7810001
-0.073264554 0.068588093 1.7810001
-0.064691044 0.067808688 1.7810001
-0.05522678 0.065915823 1.7810003
-0.30552879 0.07716161 1.7810001
-0.29929352 0.077941015 1.7810001
-0.24473481 0.07482338 1.7810001
-0.22447014 0.072485141 1.7810001
-0.21355839 0.071705736 1.7810001
-0.20472507 0.073784165 1.7810001
-0.19485256 0.07482338 1.7810001
-0.18394081 0.074823372 1.7810001
-0.17458788 0.074823387 1.7810001
-0.16523495 0.074823372 1.7810001
-0.15640165 0.075342983 1.7810001
-0.1449703 0.07482338 1.7810001
-0.13405855 0.074823387 1.7810001
-0.12470562 0.07482338 1.7810001
-0.11847035 0.07482338 1.7810001
-0.10366155 0.074043967 1.7810001
-0.09508805 0.07482338 1.7810001
-0.084176295 0.074823372 1.7810001
-0.072485149 0.074043967 1.7810001
-0.06547045 0.07482338 1.7810001
-0.056117535 0.074823372 1.7810001
-0.047284216 0.075342983 1.7810001
0.03429405 0.07482338 1.7810001
-0.32735229 0.08573512 1.7810001
-0.27123475 0.081058659 1.7810001
-0.26499948 0.083137088 1.7810001
-0.24352238 0.083483495 1.7810001
-0.23507011 0.08355277 1.7810001
-0.20264666 0.084176302 1.7810001
-0.19485256 0.084176302 1.7810001
-0.1839408 0.084176302 1.7810001
-0.17458789 0.084176295 1.7810001
-0.16523497 0.084176295 1.7810001
-0.15432322 0.081058659 1.7810001
-0.1447971 0.083137095 1.7810001
-0.13405855 0.084176302 1.7810001
-0.12470562 0.084176302 1.7810001
-0.11574242 0.084565997 1.7810001
-0.10555442 0.085067056 1.7810003
-0.09508805 0.084176302 1.7810001
-0.084176302 0.084176295 1.7810001
-0.074433669 0.084566005 1.7810001
-0.06547045 0.084176309 1.7810001
-0.056117535 0.084176302 1.7810001
-0.046764612 0.084955707 1.7810001
-0.03741169 0.087293938 1.7810001
0.03429405 0.081058666 1.7810001
-0.33254835 0.094048828 1.7810001
-0.32501402 0.095088042 1.7810001
-0.2899406 0.090411581 1.7810001
-0.22758777 0.099764504 1.7810001
-0.20264666 0.093529224 1.7810001
-0.1945408 0.094776273 1.7810003
-0.18394081 0.095088035 1.7810001
-0.17458789 0.09508805 1.7810001
-0.16523495 0.095088035 1.7810001
-0.14341147 0.09851744 1.7810001
-0.13377513 0.095513172 1.7810001
-0.12442221 0.095513172 1.7810001
-0.11569912 0.093875624 1.7810001
-0.10599979 0.095088057 1.7810001
-0.09508805 0.095088035 1.7810001
-0.084176302 0.09508805 1.7810001
-0.074539959 0.095513172 1.7810001
-0.065470457 0.095088035 1.7810001
-0.056117535 0.095088035 1.7810001
-0.045205791 0.095088035 1.7810001
-0.03457747 0.095513187 1.7810001
-0.024941126 0.09703657 1.7810001
-0.016924337 0.096646868 1.7810003
0.023694068 0.092905693 1.7810001
-0.23382306 0.10599979 1.7810001
-0.22602896 0.10599979 1.7810001
-0.20264664 0.10444096 1.7810001
-0.19329372 0.10599979 1.7810001
-0.18394081 0.10599979 1.7810001
-0.17458789 0.10599979 1.7810001
-0.16523497 0.10599978 1.7810001
-0.15484282 0.107039 1.7810001
-0.1457497 0.10444096 1.7810001
-0.13405855 0.10599979 1.7810001
-0.12470564 0.1059998 1.7810001
-0.10444097 0.10599979 1.7810001
-0.09508805 0.10599979 1.7810001
-0.084176295 0.10599978 1.7810001
-0.07482338 0.10689054 1.7810003
-0.065470457 0.10638949 1.7810001
-0.056117535 0.10599979 1.7810001
-0.046141084 0.10568803 1.7810001
-0.024941128 0.10288215 1.7810001
-0.014029383 0.10599978 1.7810001
-0.0062352815 0.10599979 1.7810001
0.0062352815 0.10288215 1.7810001
0.024941126 0.10833801 1.7810001
-0.23382306 0.11535271 1.7810001
-0.22602896 0.11535271 1.7810001
-0.19329374 0.11535271 1.7810001
-0.1839408 0.11535271 1.7810001
-0.17458789 0.11535271 1.7810001
-0.16523495 0.1153527 1.7810001
-0.15650557 0.11472918 1.7810001
-0.14964676 0.11535271 1.7810001
-0.13366884 0.114963 1.7810001
-0.12470564 0.11535271 1.7810001
-0.11490733 0.11624347 1.7810003
-0.10561008 0.11574242 1.7810001
-0.094662905 0.11506929 1.7810001
-0.084176309 0.11535271 1.7810001
-0.074823372 0.11535271 1.7810001
-0.065470457 0.11535271 1.7810001
-0.056117535 0.11535271 1.7810001
-0.045205794 0.11535271 1.7810001
-0.034294046 0.11535271 1.7810001
-0.024941126 0.11535271 1.7810001
-0.01469745 0.11579809 1.7810003
-0.0062352815 0.11535271 1.7810001
0.025720535 0.11379388 1.7810001
0.033514638 0.11301447 1.7810001
-0.33670521 0.12782326 1.7810001
-0.3133229 0.12782326 1.7810001
-0.30241114 0.12782326 1.7810001
-0.29528514 0.12515101 1.7810003
-0.2899406 0.12782326 1.7810001
-0.25252891 0.12158799 1.7810001
-0.23382306 0.12381488 1.7810003
-0.22602896 0.12470564 1.7810001
-0.20368586 0.12678406 1.7810001
-0.19329372 0.12470564 1.7810001
-0.1839408 0.12470564 1.7810001
-0.17503326 0.12381488 1.7810003
-0.16585848 0.12283504 1.7810001
-0.15899968 0.12158799 1.7810001
-0.13094091 0.12158799 1.7810001
-0.12426026 0.12381488 1.7810003
-0.11535271 0.12431592 1.7810001
-0.10689054 0.12426025 1.7810003
-0.093529224 0.12392621 1.7810001
-0.084176302 0.12470562 1.7810001
-0.075213082 0.12431592 1.7810001
-0.065470457 0.1231468 1.7810001
-0.056117531 0.12283504 1.7810001
-0.045205794 0.12470563 1.7810001
-0.034294046 0.12470562 1.7810001
-0.024941126 0.12470564 1.7810001
-0.015198498 0.12470563 1.7810001
-0.0062352815 0.12426026 1.7810003
0 0.12470563 1.7810001
0.024941126 0.12158799 1.7810001
0.13405855 0.12158799 1.7810001
-0.33202875 0.13405856 1.7810001
-0.32384494 0.13444825 1.7810001
-0.31488171 0.13405855 1.7810001
-0.30508342 0.13494931 1.7810003
-0.29617587 0.13405855 1.7810001
-0.28682294 0.13450393 1.7810003
-0.23538187 0.13094091 1.7810001
-0.22524954 0.13327914 1.7810001
-0.20472507 0.13509777 1.7810001
-0.19442742 0.13434197 1.7810001
-0.18438619 0.1331678 1.7810003
-0.17770553 0.13405856 1.7810001
-0.12158799 0.13249972 1.7810001
-0.11223507 0.13249972 1.7810001
-0.10755861 0.13405856 1.7810001
-0.091190986 0.13327914 1.7810001
-0.084176302 0.13094091 1.7810001
-0.075602785 0.13172032 1.7810001
-0.04478066 0.13377513 1.7810001
-0.035333261 0.13301934 1.7810001
-0.024941128 0.13094091 1.7810001
-0.01766663 0.13198012 1.7810001
-0.32485816 0.14434676 1.7810001
-0.31453529 0.14410429 1.7810001
-0.30490527 0.14434677 1.7810001
-0.29617587 0.1449703 1.7810001
-0.2852641 0.1449703 1.7810001
-0.2743524 0.1449703 1.7810001
-0.26569226 0.14618273 1.7810001
-0.20576429 0.14341147 1.7810001
-0.19017608 0.14341147 1.7810001
-0.17458789 0.14434677 1.7810001
-0.16523497 0.14539543 1.7810001
-0.15650557 0.1449703 1.7810001
-0.14964676 0.1449703 1.7810001
-0.107039 0.14652912 1.7810001
-0.099764504 0.14341147 1.7810001
-0.042088151 0.14029384 1.7810001
-0.30552879 0.15588205 1.7810003
-0.29555234 0.15401144 1.7810001
-0.28318569 0.15484282 1.7810001
-0.27435237 0.15588205 1.7810001
-0.26499945 0.15588203 1.7810001
-0.25564653 0.15588203 1.7810001
-0.17224964 0.15510263 1.7810001
-0.16523495 0.15588203 1.7810001
-0.15627174 0.15549232 1.7810001
-0.11535271 0.15588203 1.7810001
-0.10599979 0.15588205 1.7810001
-0.09851744 0.15650557 1.7810001
-0.27435237 0.16562466 1.7810001
-0.26499948 0.16523495 1.7810001
-0.25564653 0.16523497 1.7810001
-0.17147024 0.16211732 1.7810001
-0.1683526 0.16211732 1.7810001
-0.10755861 0.16211732 1.7810001
-0.27310535 0.17583494 1.7810001
-0.26499945 0.17458791 1.7810001
-0.32423466 0.18549964 1.7810001
-0.2743524 0.18438619 1.7810003
0.9041158 0.30552879 1.7810001
0.58650613 0.31449202 1.7810001
0.9041158 0.31644052 1.7810001
0.90473938 0.32236406 1.7810001
0.66717511 0.34917575 1.7810001
0.66717517 0.35541105 1.7810001
-0.3352733 0.037600745 1.7900001
-0.2036707 0.037600745 1.7900001
-0.16293655 0.037600745 1.7900001
0.023500465 0.034467347 1.7900001
-0.33683997 0.040734138 1.7900001
-0.31856185 0.045956463 1.7900002
-0.22560446 0.04700093 1.7900002
-0.21933767 0.04700093 1.7900001
-0.20053729 0.042300835 1.7900001
-0.19427051 0.043867532 1.7900001
-0.18382585 0.044912003 1.7900002
-0.17755906 0.044912003 1.7900002
-0.16606994 0.043084182 1.7900001
-0.15353636 0.04700093 1.7900001
-0.14726958 0.04700093 1.7900001
-0.10496874 0.04700093 1.7900001
-0.097135253 0.04700093 1.7900001
-0.084601671 0.046217579 1.7900001
-0.076768182 0.04700093 1.7900001
-0.0658013 0.043867536 1.7900001
-0.054162979 0.044315167 1.7900002
-0.33840668 0.057967812 1.7900001
-0.32743979 0.057967812 1.7900001
-0.31595069 0.055878885 1.7900003
-0.30393934 0.057967808 1.7900002
-0.25380501 0.057184462 1.7900001
-0.23531799 0.053894401 1.7900002
-0.2259526 0.055356648 1.7900001
-0.21933767 0.05170102 1.7900001
-0.11280223 0.059534509 1.7900001
-0.10583913 0.053964034 1.7900001
-0.093554229 0.053715352 1.7900002
-0.084601663 0.054834418 1.7900003
-0.07589779 0.053615876 1.7900001
-0.0658013 0.054834418 1.7900003
-0.057027794 0.052641042 1.7900002
-0.043867536 0.051701024 1.7900002
-0.3352733 0.066248931 1.7900002
-0.32587308 0.0658013 1.7900001
-0.31490624 0.0658013 1.7900003
-0.30393934 0.0658013 1.7900001
-0.29453915 0.066696554 1.7900002
-0.28576565 0.067681335 1.7900002
-0.27511209 0.067681335 1.7900002
-0.26414523 0.066427983 1.7900002
-0.25537169 0.065801308 1.7900002
-0.24127144 0.064234599 1.7900001
-0.23500465 0.067368001 1.7900002
-0.22717115 0.062667906 1.7900001
-0.12220241 0.062667906 1.7900001
-0.11593563 0.065409623 1.7900001
-0.10757991 0.064756833 1.7900002
-0.090868458 0.062667906 1.7900001
-0.082512751 0.063712373 1.7900002
-0.075649112 0.064906046 1.7900002
-0.066427983 0.063921265 1.7900002
-0.053894401 0.065174617 1.7900002
-0.044259205 0.06619297 1.7900001
-0.034467347 0.0658013 1.7900001
-0.024022698 0.065279067 1.7900002
-0.015666975 0.0658013 1.7900001
0.021933766 0.064234599 1.7900001
-0.32587311 0.075201489 1.7900001
-0.31533352 0.074916624 1.7900003
-0.30331266 0.073321454 1.7900002
-0.29453915 0.075201489 1.7900001
-0.28513896 0.075201482 1.7900001
-0.27573881 0.075201489 1.7900001
-0.26477191 0.075201489 1.7900003
-0.25537169 0.075201482 1.7900002
-0.11504038 0.075201489 1.7900002
-0.10841548 0.075828165 1.7900002
-0.077081524 0.075828165 1.7900002
-0.043345302 0.074679255 1.7900002
-0.034467347 0.075201489 1.7900001
-0.025067162 0.075201489 1.7900001
-0.015666977 0.075201489 1.7900001
-0.0062667904 0.075201489 1.7900001
0.0067144185 0.074306235 1.7900002
0.015666977 0.073634788 1.7900002
0.021933766 0.072068088 1.7900001
-0.31490624 0.084601663 1.7900003
-0.30393934 0.084601678 1.7900001
-0.29453915 0.084601671 1.7900001
-0.28513899 0.084601678 1.7900001
-0.27613044 0.08499334 1.7900001
-0.26424965 0.084949829 1.7900001
-0.25537172 0.084601671 1.7900002
-0.11280223 0.081468277 1.7900001
-0.10810214 0.081468277 1.7900001
-0.078334883 0.081468277 1.7900001
-0.042300835 0.083034977 1.7900001
-0.03407567 0.084210001 1.7900001
-0.024283813 0.08695171 1.7900001
-0.015666975 0.084601663 1.7900001
-0.00626679 0.084209993 1.7900001
-0.32430643 0.090868458 1.7900001
-0.31490624 0.094001874 1.7900003
-0.30393934 0.094001859 1.7900001
-0.29453918 0.094001859 1.7900002
-0.28513896 0.094001852 1.7900001
-0.25537169 0.094001859 1.7900002
-0.078334883 0.090868458 1.7900001
-0.031333953 0.090868458 1.7900001
-0.025067162 0.091651805 1.7900001
-0.013786939 0.093375184 1.7900002
-0.0094001861 0.090868458 1.7900001
0.17547013 0.097135253 1.7900001
0.18278138 0.094001852 1.7900002
-0.32558823 0.10539602 1.7900003
-0.31490624 0.10496873 1.7900004
-0.30393934 0.10511118 1.7900003
-0.29453915 0.10496874 1.7900003
-0.28513896 0.10496874 1.7900003
-0.075201482 0.10340204 1.7900001
-0.0658013 0.10340204 1.7900001
0.17703682 0.10026865 1.7900001
0.18330362 0.10026865 1.7900001
-0.32587311 0.11593563 1.7900001
-0.30393934 0.11593563 1.7900001
-0.29453915 0.11593563 1.7900001
-0.28513899 0.11593562 1.7900001
-0.27534711 0.11554394 1.7900001
0.14256948 0.11906902 1.7900001
0.22873785 0.11906902 1.7900001
0.30550605 0.11906902 1.7900001
0.31177282 0.11906902 1.7900001
-0.40420797 0.12690251 1.7900001
-0.31490624 0.12470912 1.7900002
-0.30438697 0.12444056 1.7900002
-0.29140577 0.12376911 1.7900001
-0.28513896 0.12533581 1.7900001
-0.27495542 0.12455246 1.7900001
0.10653543 0.12533581 1.7900001
0.22873785 0.12376911 1.7900001
0.30628937 0.12611917 1.7900001
0.3124443 0.12578343 1.7900002
-0.27573878 0.134736 1.7900001
-0.03290065 0.13630269 1.7900001
0.2569384 0.13786939 1.7900001
0.3112506 0.13369153 1.7900002
0.25067163 0.14256948 1.7900001
0.26007181 0.14256948 1.7900001
0.21463758 0.15666977 1.7900001
0.85541689 0.26633859 1.7900001
0.87108386 0.269472 1.7900001
0.58594489 0.27260539 1.7900001
0.83661652 0.27260539 1.7900001
0.86716712 0.27652213 1.7900001
0.89928442 0.27417207 1.7900001
0.90398455 0.27417207 1.7900001
0.86638379 0.28513896 1.7900002
0.8679505 0.29297245 1.7900001
0.88048404 0.29453915 1.7900001
0.90398455 0.30550605 1.7900001
0.098166302 0.0031666548 1.8090001
0.075999714 0.022166584 1.8090001
-0.20165761 0.037810802 1.8000001
-0.063018002 0.037810802 1.8000001
-0.058816802 0.036760502 1.8000001
0.023631752 0.031509001 1.8000001
-0.15124321 0.047263503 1.8000001
-0.092951551 0.047263503 1.8000001
-0.081923403 0.0441126 1.8000001
-0.074361242 0.0441126 1.8000001
-0.059867106 0.044112604 1.8000001
-0.024447046 0.046534859 1.8022501
-0.0094527006 0.0441126 1.8000001
-0.091376103 0.050414402 1.8000001
-0.073521003 0.058816802 1.8000001
-0.059867103 0.056716204 1.8000001
-0.025207203 0.050414406 1.8000001
-0.018905401 0.050414402 1.8000001
0.085895516 0.054228969 1.8090001
0.094547264 0.054737896 1.8090003
0.21533252 0.050666478 1.8090001
-0.027307801 0.067219205 1.8000001
0.094647802 0.064036801 1.8090003
0.15305498 0.068610862 1.8090003
0.1961908 0.076395832 1.8077145
0.20571879 0.075955957 1.8080002
0.2573393 0.076989621 1.8075001
-0.02583738 0.083183758 1.8000001
0.1880037 0.084024005 1.8000001
0.19590198 0.085312374 1.8050001
0.32496417 0.097252533 1.8067501
0.32561928 0.10432631 1.8060002
0.33437002 0.10409699 1.802
0.69983071 0.10766626 1.8090001
0.32467797 0.11505383 1.8007498
0.90882993 0.11083292 1.8090001
0.3245427 0.126036 1.8000001
0.89774668 0.12983285 1.8090001
0.82333034 0.13752332 1.8090003
0.83283025 0.13933282 1.8090001
0.8961634 0.13616617 1.8090003
0.90882993 0.13774949 1.8090001
0.91357994 0.13774949 1.8090001
0.82564616 0.14383858 1.8060001
0.83599693 0.14566612 1.8090003
0.84708017 0.14883278 1.8090001
0.87716341 0.14724946 1.8090001
0.88508004 0.14566612 1.8090003
0.8961634 0.14566612 1.8090003
0.90882993 0.14566612 1.8090003
0.91357994 0.14566612 1.8090001
0.81518126 0.1581358 1.8067501
0.8375802 0.15516607 1.8090003
0.84640157 0.15561846 1.8090003
0.8847124 0.15510044 1.8082502
0.8961634 0.15516607 1.8090003
0.90882993 0.15199943 1.8090001
0.80644149 0.16677716 1.8090003
0.81443071 0.16387308 1.8080002
0.83599687 0.16308272 1.8090001
0.84676355 0.16339938 1.8090003
0.88666338 0.16387439 1.8090001
0.89458001 0.16466606 1.8090001
0.90882993 0.1678327 1.8090001
0.79483038 0.17574935 1.8090001
0.80116367 0.17416602 1.8090001
0.84233022 0.17733267 1.8090001
0.86133009 0.17416602 1.8090001
0.77708852 0.18579736 1.8077146
0.78533041 0.18524931 1.8090003
0.79483044 0.18524931 1.8090003
0.80327481 0.18788819 1.8090003
0.84233022 0.18208265 1.8090001
0.87273008 0.18809929 1.8090003
0.9119966 0.1899993 1.8090001
0.77899706 0.19316594 1.8090001
0.78523779 0.1958127 1.8078752
0.79483032 0.19633259 1.8090003
0.80274701 0.1963326 1.8090003
0.84470522 0.19870758 1.8090001
0.89616334 0.19791594 1.8090003
0.90566337 0.19791591 1.8090003
0.9130522 0.19738816 1.8090003
0.78849703 0.20424923 1.8090001
0.80274701 0.20583257 1.8090003
0.81383032 0.20583257 1.8090003
0.83494133 0.20794368 1.8090003
0.84549677 0.20583256 1.8090003
0.88508004 0.20372146 1.8090003
0.89933002 0.20583257 1.8090003
0.90526748 0.20622841 1.8090001
0.91278827 0.2050409 1.8090001
0.78772503 0.21111031 1.8000001
0.82491362 0.21533254 1.8090003
0.83599693 0.21533252 1.8090003
0.84502769 0.21521173 1.8080002
0.80569303 0.22455285 1.8067502
0.8147282 0.22399357 1.8022499
0.82565796 0.22424562 1.8011252
0.83601654 0.2244091 1.8056251
0.84405756 0.22362942 1.8016363
0.80820584 0.23001571 1.8000001
0.81643313 0.23421693 1.8000001
0.82711124 0.23474206 1.8000001
0.83603096 0.23503225 1.8022501
0.84444135 0.23474209 1.8
0.85399562 0.23527631 1.8008182
0.81687081 0.24498248 1.8000001
0.85411292 0.24601601 1.8018
0.90446073 0.25501108 1.8010002
0.91376102 0.27570376 1.8000001
0.10295451 0.0074297069 1.8190001
0.085335486 0.017831296 1.8190001
0.89315677 0.066867352 1.8190001
0.89315677 0.070051514 1.8190001
0.71643597 0.085176282 1.8190001
0.73235673 0.089156471 1.8190001
0.7673825 0.087564394 1.8190001
0.77247715 0.086609147 1.8190001
0.82469738 0.087564394 1.8190001
0.85972315 0.084380239 1.8190001
0.86290729 0.084380239 1.8190001
0.71325183 0.096889429 1.8190002
0.7673825 0.093932718 1.8190001
0.8151449 0.092340633 1.8190001
0.86290729 0.09870895 1.8190001
0.88519639 0.09870895 1.8190001
0.89793307 0.09870895 1.8190001
0.70369929 0.10467925 1.8190001
0.85494691 0.10189311 1.8190001
0.88466567 0.10613866 1.8190001
0.89793307 0.10826143 1.8190001
0.90536278 0.10720005 1.8190001
0.91066968 0.10507727 1.8190001
0.82788152 0.11781391 1.8190001
0.83478057 0.11569113 1.8190001
0.84221029 0.11781391 1.8190001
0.85017067 0.11622183 1.8190001
0.88466567 0.11462976 1.8190001
0.89156473 0.11781391 1.8190001
0.90668947 0.11383371 1.8190001
0.91066968 0.11462976 1.8190001
0.82575881 0.12312084 1.8190001
0.83345377 0.1217941 1.8190001
0.84221029 0.12418224 1.8190001
0.85017067 0.12099807 1.8190001
0.88678849 0.12418224 1.8190001
0.89429402 0.12418224 1.8190002
0.90483207 0.12471294 1.8190001
0.91173112 0.12524363 1.8190001
0.82788152 0.13214263 1.8190001
0.83424979 0.13373472 1.819
0.84221029 0.1337347 1.8190001
0.89474887 0.13055055 1.8190001
0.9074856 0.13373472 1.8190001
0.84516698 0.14328718 1.8190002
0.85451269 0.14502402 1.8190001
0.86688751 0.14885947 1.8190001
0.90748554 0.14487927 1.8190001
0.91194344 0.14456086 1.8190001
0.88201225 0.15602383 1.8190001
0.9074856 0.15602383 1.8190001
0.91339898 0.15602383 1.8190002
0.39358944 -0.0031999142 1.8280001
0.48478699 0.0015999571 1.8280001
0.54078549 0.036799014 1.8280001
0.73918021 0.03839897 1.8280001
0.74398005 0.03839897 1.8280001
0.74398005 0.041598886 1.8280001
0.82877779 0.055998497 1.8280001
0.89704263 0.056531817 1.8280001
0.90429574 0.055038523 1.8280001
0.82877779 0.063998282 1.8280001
0.83197773 0.060798369 1.8280001
0.88957614 0.067198202 1.8280001
0.90365571 0.063998282 1.8280001
0.82877779 0.07519798 1.8280001
0.83437765 0.076797947 1.8280001
0.84413737 0.078717887 1.8280001
0.85437715 0.079997852 1.8280001
0.86397684 0.079997852 1.8280001
0.89597601 0.073598027 1.8280001
0.82493794 0.087037675 1.8280001
0.86184359 0.086397693 1.8280001
0.89597601 0.09791737 1.8280001
0.8607769 0.10239726 1.8280001
0.90504241 0.10453054 1.8280001
0.91197556 0.10399722 1.8280001
0.83357763 0.11359695 1.8280001
0.85384387 0.11519691 1.8280001
-0.099739991 -0.15443611 1.8380001
-0.10510236 -0.14692882 1.8380001
-0.099739991 -0.14800128 1.8380001
-0.12547934 -0.12869677 1.8380001
0.34426385 -0.083652899 1.8380001
0.34426385 -0.07078322 1.8380001
0.34265512 -0.067565799 1.8380001
0.5598309 -0.067565799 1.8380001
0.56465709 -0.065957092 1.8380001
0.42469937 -0.053776868 1.8380003
0.43113416 -0.053087413 1.8380001
0.44078642 -0.054696124 1.8380001
0.39574257 -0.046652578 1.8380001
0.42791674 -0.046652578 1.8380001
0.43113416 -0.046652578 1.8380001
0.35713354 -0.027348064 1.8380001
0.55822217 -0.022521934 1.8380001
0.56412089 -0.023594407 1.8380001
0.43542406 -0.015014624 1.8380001
0.56465709 -0.0064348383 1.8380002
0.85905093 -0.0032174191 1.8380001
0.87835544 -0.0032174191 1.8380001
0.8847903 -0.0032174191 1.8380001
0.8912251 -0.0032174191 1.8380001
0.85905093 0.0032174191 1.8380001
0.87835544 0.0032174191 1.8380001
0.88543379 0.0041826451 1.8380002
0.8937276 0.0039324011 1.8380002
0.90087736 0.0032174191 1.8380001
0.88479024 0.014478386 1.8380001
0.83974642 0.038609032 1.8380001
0.84682477 0.037322063 1.8380002
0.90731221 0.038609032 1.8380001
0.91052961 0.038609032 1.8380001
0.80435485 0.045043867 1.8380002
0.81360483 0.045446042 1.8380002
0.85261607 0.045043867 1.8380001
0.90489912 0.047456931 1.8380001
0.91334486 0.044641692 1.8380002
0.90409482 0.052283064 1.8380001
-0.59522605 -0.25394157 1.848
0 -0.22482723 1.848
0.029114319 -0.22644471 1.848
-0.042054016 -0.20056531 1.848
0.074403256 -0.20380023 1.848
0.30408287 -0.1326319 1.848
0.42377508 -0.11591812 1.8479999
0.34451944 -0.10513505 1.8479998
0.40436554 -0.10028265 1.848
0.46259418 -0.10190012 1.848
0.40396118 -0.094217174 1.8479998
0.42485341 -0.094891116 1.8479999
0.59522605 -0.080873109 1.848
0.42183408 -0.07375627 1.8479999
0.54023236 -0.071168333 1.848
0.56546479 -0.07375627 1.8479999
0.57258159 -0.072785795 1.848
0.81520092 -0.074403256 1.8479999
0.82436657 -0.073324949 1.8479999
0.80549622 -0.065102853 1.8479998
0.81473881 -0.065622754 1.8479999
0.82382745 -0.066855103 1.848
0.84539354 -0.06362018 1.848
0.85531396 -0.063404523 1.8479999
0.86210728 -0.064698488 1.8479999
0.87706888 -0.064698488 1.8479998
0.88636923 -0.064698488 1.8479998
0.80441785 -0.05715033 1.848
0.811966 -0.058228638 1.848
0.84431523 -0.058228638 1.848
0.85466701 -0.056934666 1.8479999
0.86156815 -0.05715033 1.848
0.87666446 -0.054993715 1.8479998
0.88636923 -0.054993715 1.8479998
0.896074 -0.054993715 1.8479998
0.90335262 -0.054184981 1.848
0.80226123 -0.046906404 1.848
0.87666446 -0.04390255 1.8479999
0.88590717 -0.04436468 1.8479999
0.89391744 -0.045288943 1.848
0.91224867 -0.048523866 1.848
0.885445 -0.036046304 1.8479999
0.84560919 -0.024585424 1.8479999
0.85402006 -0.025475031 1.8479998
0.89688277 -0.013748428 1.848
0.90416133 -0.012939697 1.848
0.85402006 -0.0064698486 1.8479998
0.89653617 -0.0073941131 1.8479999
-0.61145669 -0.37077692 1.858
-0.61470914 -0.3675245 1.858
-0.62121397 -0.35126236 1.858
-0.22495967 -0.32470083 1.858
-0.22636907 -0.31613612 1.858
-0.22441761 -0.30898076 1.858
-0.39354393 -0.28621376 1.858
-0.38378665 -0.28296134 1.858
-0.2016506 -0.27320406 1.858
-0.19189332 -0.27645648 1.858
-0.20350915 -0.26344678 1.858
-0.20555353 -0.2536895 1.858
-0.18755674 -0.2515212 1.8580002
-0.18538846 -0.24067976 1.858
-0.16587389 -0.23417492 1.858
0.31494355 -0.19514576 1.858
0.83587426 -0.091068015 1.8580002
0.86555272 -0.074399322 1.8579999
0.87397414 -0.065048583 1.858
-0.49212509 -0.37277249 1.868
-0.51337963 -0.36296269 1.868
-0.50029993 -0.36296269 1.868
-0.49212512 -0.3662326 1.868
-0.41201168 -0.36296269 1.868
-0.40438184 -0.36405265 1.868
-0.37931237 -0.36296269 1.868
-0.49376005 -0.35642281 1.868
-0.4218215 -0.35315287 1.868
-0.41419166 -0.35533285 1.868
-0.40547183 -0.35601407 1.868
-0.39566204 -0.3554886 1.8680001
-0.3853851 -0.3554886 1.8680001
-0.37767741 -0.35560533 1.868
-0.4823153 -0.34007314 1.868
-0.42345652 -0.34334308 1.868
-0.22562546 -0.33353329 1.868
-0.19619605 -0.33353329 1.868
-0.23608923 -0.32176152 1.868
-0.21581565 -0.3237235 1.868
-0.19292611 -0.3237235 1.868
-0.22399049 -0.31554866 1.868
-0.18311632 -0.31718361 1.868
-0.17984638 -0.31718361 1.868
0.17003658 -0.23543525 1.868
0.23707023 -0.23216532 1.868
0.26649964 -0.23625275 1.868
0.26445591 -0.22603419 1.868
0.38585222 -0.22726044 1.868
0.44471103 -0.22235553 1.868
0.53735918 -0.21472567 1.868
0.54280913 -0.21581566 1.868
0.55425382 -0.21581565 1.868
0.5395391 -0.20764081 1.868
0.55834126 -0.20518836 1.868
0.55479884 -0.198376 1.868
-0.52489448 -0.45476246 1.8780001
-0.51777172 -0.45366666 1.8780001
-0.4832536 -0.45366666 1.8780001
-0.47996616 -0.45202291 1.8780001
-0.58187681 -0.43722945 1.8780001
-0.37148067 -0.42079225 1.8780001
-0.47339129 -0.41092995 1.8780001
-0.45366666 -0.41092995 1.8780001
-0.37230253 -0.41339552 1.8780001
-0.36490577 -0.41421741 1.8780001
-0.36819321 -0.40764248 1.8780001
-0.32710022 -0.40106761 1.8780001
-0.3254565 -0.39778018 1.8780001
0.2756753 -0.32451725 1.8780003
0.28600723 -0.32381278 1.8780001
0.26675221 -0.31465495 1.8780003
0.27614492 -0.3155942 1.878
0.29751328 -0.31230676 1.8780001
0.30408815 -0.31395048 1.8780001
0.36556324 -0.31362173 1.8780001
0.37312439 -0.31230676 1.8780001
0.28600726 -0.30573186 1.878
0.29718456 -0.30704686 1.8780001
0.30326629 -0.30655372 1.8780001
0.37257648 -0.30682766 1.8780001
0.38134298 -0.3090193 1.8780001
0.2487496 -0.29477376 1.8780001
0.28655514 -0.29696539 1.8780001
0.28666472 -0.28600723 1.8780001
0.35339975 -0.28600723 1.8780001
0.40482467 -0.28506798 1.8780003
0.40435505 -0.27614492 1.878
0.41092995 -0.27614492 1.8780001
0.41092998 -0.26628262 1.8780001
0.55639911 -0.26381701 1.8780001
0.37476811 -0.25642028 1.878
0.41366947 -0.25532448 1.8780001
0.42243597 -0.25477657 1.8780001
0.43065456 -0.25313285 1.8780001
0.49640337 -0.25313285 1.8780001
0.55557728 -0.25970772 1.8780001
0.43394202 -0.24409238 1.8780001
0.56379586 -0.22190216 1.8780001
0.74624878 -0.20710869 1.8780001
-0.52879107 -0.5122664 1.8880001
-0.52879107 -0.50730896 1.8880001
0.22473621 -0.38006863 1.8880002
0.26549721 -0.34261259 1.8880002
0.27431038 -0.34040928 1.8880001
0.31727466 -0.34040928 1.8880001
0.52879107 -0.34040928 1.8880001
0.30405486 -0.33049446 1.8880002
0.42633784 -0.33049443 1.8880001
0.52879107 -0.33379936 1.8880002
0.53292227 -0.3346256 1.8880001
0.35362908 -0.32443535 1.8880002
0.52879107 -0.32718951 1.8880001
0.80310148 -0.32388455 1.8880001
0.77666193 -0.31066477 1.8880001
0.79649162 -0.3139697 1.8880001
0.77335703 -0.30074996 1.8880002
0.5155713 -0.29083511 1.8880001
0.77500951 -0.29634339 1.8880002
0.79649162 -0.29083511 1.8880002
0.79539001 -0.28312358 1.8880002
0.80574542 -0.27298841 1.8880001
0.79516965 -0.25580272 1.8880001
0.80640644 -0.25778565 1.8880002
-0.52854776 -0.56178975 1.899
-0.53187197 -0.55347925 1.899
-0.46871215 -0.55846554 1.899
-0.53187197 -0.53519619 1.899
-0.23768029 -0.53353405 1.899
-0.24432868 -0.52522361 1.899
-0.23768029 -0.52522361 1.899
-0.37895879 -0.51525104 1.899
0.11856313 -0.47536057 1.899
0.12498992 -0.47403088 1.899
0.13629219 -0.46705008 1.899
0.31746107 -0.44211856 1.899
0.35901356 -0.44211856 1.899
0.26593599 -0.40555239 1.899
0.27632412 -0.40513685 1.899
0.66151571 -0.40222818 1.899
0.65819156 -0.39391768 1.899
0.79780793 -0.39557976 1.899
0.80279422 -0.39557979 1.899
0.54683089 -0.38560715 1.899
0.65619707 -0.38427749 1.899
0.66151571 -0.38560718 1.899
0.72135133 -0.38893136 1.899
0.76622808 -0.38228297 1.899
0.77453852 -0.38228297 1.899
0.78284907 -0.38228297 1.899
0.79780793 -0.38560718 1.899
0.80279434 -0.38560718 1.899
0.53519619 -0.37231037 1.899
0.54599983 -0.37314144 1.899
0.65486741 -0.37563458 1.8989999
0.66151571 -0.37563461 1.899
0.75791752 -0.37231037 1.899
0.76498145 -0.37521908 1.899
0.77453852 -0.37563461 1.899
0.79780793 -0.37563455 1.899
0.80224025 -0.37785071 1.899
0.53519613 -0.36566201 1.8989999
0.54516876 -0.36566201 1.8989999
0.65486735 -0.36566201 1.8989999
0.66389018 -0.36566201 1.8990002
0.75625539 -0.36566198 1.899
0.76456589 -0.36566198 1.8989999
0.77358878 -0.36566198 1.8990002
0.79780793 -0.36566198 1.899
0.80398148 -0.36518711 1.8990002
0.74794495 -0.35236517 1.899
0.75791752 -0.35236517 1.899
0.76456589 -0.35568941 1.8989999
0.79448378 -0.35568938 1.899
0.80445629 -0.35568938 1.8989999
0.75570142 -0.34516272 1.899
0.764566 -0.34571674 1.8989999
0.78251666 -0.34505194 1.899
-0.61153197 -0.6716826 1.909
-0.45580849 -0.61353701 1.909
-0.44444677 -0.61286861 1.909
-0.43609244 -0.61153191 1.909
-0.43483931 -0.60443079 1.9090002
-0.53244495 -0.5925957 1.9090002
-0.4344216 -0.59482342 1.9090002
-0.3642458 -0.59315258 1.909
-0.41437137 -0.5831275 1.909
-0.40768796 -0.5814566 1.909
0.060150683 -0.51128078 1.909
0.083542615 -0.5079391 1.909
0.40351081 -0.50710368 1.909
0.41270053 -0.50125569 1.909
0.39432114 -0.49791402 1.9090002
0.40267539 -0.49791399 1.909
0.41341659 -0.49409491 1.9090002
0.42391914 -0.49361753 1.9090002
0.43400386 -0.49415457 1.9090002
0.44444671 -0.49323559 1.909
0.41270053 -0.48120546 1.909
0.43692788 -0.48538256 1.909
0.44444677 -0.4845472 1.9090002
0.46449694 -0.48788887 1.909
0.41325748 -0.47563598 1.9090002
0.44645175 -0.4751904 1.909
0.4544718 -0.47452205 1.9090002
0.46282607 -0.47118035 1.909
0.29574084 -0.46115524 1.909
0.40768796 -0.46449694 1.909
0.41270053 -0.46449694 1.909
0.44778842 -0.46783864 1.909
0.45351708 -0.46449694 1.9090002
0.4640792 -0.4640792 1.9090002
0.47229427 -0.46226916 1.9090002
0.29407001 -0.45447186 1.9090002
0.32247448 -0.45113012 1.909
0.40768796 -0.45781353 1.909
0.41437137 -0.45781353 1.909
0.45380351 -0.4564769 1.909
0.4751904 -0.45514017 1.909
0.48120546 -0.45280099 1.909
0.32247448 -0.44778842 1.909
0.45405412 -0.44402897 1.9090002
0.46491462 -0.44402897 1.9090002
0.47285125 -0.44444674 1.9090002
0.73517507 -0.44402903 1.9090002
0.74185842 -0.44110501 1.909
0.54469782 -0.43442157 1.9090002
0.55472302 -0.43442157 1.9090002
0.56341141 -0.43308493 1.909
0.57560861 -0.43191531 1.909
0.58479834 -0.43346682 1.9090002
0.59482348 -0.43497854 1.9090002
0.65386021 -0.43386465 1.9090002
0.72514993 -0.43442157 1.9090002
0.73517507 -0.43442157 1.9090002
0.54469782 -0.42481422 1.9090002
0.56516576 -0.42481419 1.9090002
0.63587874 -0.42487392 1.9090002
0.64494896 -0.42439649 1.9090002
0.66499931 -0.42487392 1.9090002
0.67502439 -0.42439649 1.9090002
0.71554244 -0.42397878 1.9090002
0.72514993 -0.42439649 1.9090002
0.74520016 -0.42439651 1.9090002
0.63534164 -0.41395372 1.9090002
0.64542639 -0.41341659 1.9090002
0.67502439 -0.41437131 1.9090002
0.68504947 -0.4143714 1.9090002
0.72514999 -0.4143714 1.9090002
0.73517501 -0.4143714 1.9090002
0.74478245 -0.41478914 1.9090002
0.75522524 -0.4143714 1.9090002
0.76525027 -0.4143714 1.9090002
0.78362978 -0.41437143 1.9090002
0.79866737 -0.41437137 1.9090002
0.80284452 -0.41520679 1.909
0.63492393 -0.40434626 1.9090002
0.68504947 -0.40434623 1.9090002
0.72514987 -0.40482366 1.9090002
0.73517501 -0.40434623 1.9090002
0.74478245 -0.40392852 1.9090002
0.75522518 -0.40434623 1.9090002
0.76525027 -0.40434623 1.9090002
0.80451536 -0.40518171 1.909
0.63492388 -0.39432117 1.9090002
0.70677054 -0.39766285 1.909
0.71512479 -0.39565784 1.909
0.73517507 -0.39432114 1.9090002
0.74520016 -0.39432114 1.9090002
0.75522518 -0.384296 1.9090002
0.76190865 -0.37761262 1.909
0.17813089 -0.60161185 1.9200001
0.20613889 -0.58592737 1.9200001
0.31761074 -0.58144611 1.9200001
0.32433265 -0.58144611 1.9200001
0.24871105 -0.57136321 1.9200001
0.31817091 -0.57696486 1.9200001
0.32649326 -0.57568449 1.9200002
0.33609605 -0.5747242 1.9200001
0.34617892 -0.5747242 1.9200001
0.35424519 -0.57405204 1.9200001
0.24736667 -0.56464136 1.9200001
0.33811259 -0.5646413 1.9200001
0.34617892 -0.56416118 1.9200002
0.35424519 -0.56396914 1.9200001
0.24631038 -0.55407834 1.9200002
0.32601315 -0.55119747 1.9200001
0.33609602 -0.55455846 1.9200001
0.34617886 -0.5541383 1.9200001
0.3629837 -0.55119747 1.9200001
0.47389537 -0.55203772 1.9200001
0.49338895 -0.55455846 1.9200001
0.22518432 -0.54279506 1.9200001
0.23526722 -0.54783648 1.9200001
0.24198914 -0.54783648 1.9200001
0.32601315 -0.54783648 1.9200001
0.33609605 -0.54783648 1.9200001
0.45330951 -0.52388966 1.9200001
0.46381253 -0.52262938 1.9200001
0.4738954 -0.52262938 1.9200001
0.45372963 -0.51422691 1.9200001
0.4638125 -0.51422691 1.9200001
0.47389534 -0.51422691 1.9200001
0.50414401 -0.51254642 1.9200001
0.4638125 -0.50414401 1.9200001
0.50078309 -0.50078309 1.9200001
0.46429265 -0.49502143 1.9200002
0.47431546 -0.49448133 1.9200001
0.48649901 -0.48481852 1.9200001
0.73941123 -0.45036867 1.9200001
-0.53069389 -0.72674638 1.9310001
-0.15718004 -0.66252226 1.9310001
0.23796718 -0.66725463 1.9310001
0.24422058 -0.66674757 1.9310001
0.25520629 -0.65745199 1.9310001
0.076899908 -0.64477617 1.9310001
0.081125177 -0.642241 1.9310001
0.16563058 -0.64629722 1.9310001
0.17915143 -0.64900142 1.9310001
0.26703703 -0.64900142 1.9310001
0.074364752 -0.63548052 1.931
0.084082864 -0.63505799 1.931
0.091265827 -0.63886076 1.9310001
0.13520864 -0.63548058 1.9310001
0.16732067 -0.63886076 1.9310001
0.17915143 -0.63548052 1.9310001
0.19858767 -0.6363256 1.9310001
0.20450306 -0.63379049 1.9310001
0.09211088 -0.62449485 1.9310001
0.17915143 -0.6287201 1.9310001
0.18591186 -0.6287201 1.9310001
0.19605252 -0.62618494 1.9310001
0.20551713 -0.62466383 1.9310001
0.2146437 -0.62195969 1.9310001
0.22647445 -0.62364984 1.9310001
0.17915143 -0.61519927 1.9310001
0.21408033 -0.61632603 1.9310001
0.32619083 -0.58815753 1.9310001
0.33126113 -0.58646739 1.9310001
0.50322962 -0.56449604 1.931
0.49689171 -0.55773562 1.9310001
0.50230008 -0.55435538 1.9310001
0.0016988604 -0.71267188 1.9410001
-0.021518899 -0.7044608 1.9410002
-0.015289744 -0.7050271 1.9410001
0.21405642 -0.7050271 1.9410001
0.22085185 -0.7050271 1.9410001
0.23444274 -0.7050271 1.9410001
0.24123818 -0.7050271 1.9410001
-0.0067954417 -0.69823164 1.9410001
0.14270428 -0.69653279 1.9410001
0.20556211 -0.69993049 1.9410001
0.21454181 -0.69750363 1.9410002
0.24463591 -0.69483393 1.9410001
0.12231795 -0.68973732 1.9410001
0.24463592 -0.68701917 1.9410002
0.34996524 -0.6744476 1.9410001
0.16988604 -0.66935098 1.9410001
0.17498264 -0.66765213 1.9410001
0.18007921 -0.66595328 1.9410001
0.20301381 -0.66680264 1.9410001
0.2106587 -0.66595328 1.9410001
0.37381724 -0.76540273 1.952
0.25855121 -0.75515175 1.9520001
0.36675549 -0.75515175 1.9520001
0.37501317 -0.75771451 1.9520001
0.25399527 -0.74262285 1.9520001
0.25695664 -0.72644919 1.952
0.40491173 -0.70389712 1.952
0.40457001 -0.69432962 1.952
0.41277075 -0.69569641 1.952
0.38562703 -0.81480187 1.9640001
0.43318579 -0.81480181 1.9640001
0.44349974 -0.81394231 1.9640001
0.43318579 -0.80104989 1.9640001
0.38161606 -0.78214097 1.9640001
0.37817806 -0.77354604 1.9640001
