# .PCD v0.7 - Point Cloud Data file format
VERSION 0.7
FIELDS x y z
SIZE 4 4 4
TYPE F F F
COUNT 1 1 1
WIDTH 1440
HEIGHT 1
VIEWPOINT 0 0 0 1 0 0 0
POINTS 1440
DATA ascii
-0.86474359 -0.49730134 1.6860001
-0.86415339 -0.48461056 1.6860001
-0.86253011 -0.47590411 1.6860001
-0.85884088 -0.4736906 1.6860001
-0.85687339 -0.46631226 1.6860002
-0.86179227 -0.45155552 1.6860001
-0.85736525 -0.45450687 1.6860001
-0.85884088 -0.44565284 1.6860002
-0.86179227 -0.43679881 1.6860001
-0.85884088 -0.43532315 1.6860001
-0.85785717 -0.42499346 1.6860002
-0.85785717 -0.41564751 1.6860001
-0.85884088 -0.40433404 1.6860002
-0.86179227 -0.39843136 1.6860001
-0.85884088 -0.39548001 1.6860002
-0.85647982 -0.38426492 1.6860001
-0.85470909 -0.37541088 1.6860001
-0.85293823 -0.36449093 1.6860001
-0.85293829 -0.3541612 1.6860002
-0.85392207 -0.3453072 1.6860002
-0.85588956 -0.33497745 1.6860001
-0.85588956 -0.32612342 1.6860001
-0.85884088 -0.31579375 1.6860002
-0.86179227 -0.30693969 1.6860001
-0.85785711 -0.30448025 1.6860001
-0.85411876 -0.28509974 1.6860001
-0.85736525 -0.27595061 1.6860001
-0.85736525 -0.26488307 1.6860001
-0.86179227 -0.25086418 1.6860001
-0.85736525 -0.25529119 1.686
-0.86179227 -0.24791284 1.6860001
-0.85785717 -0.24397771 1.6860002
-0.85715449 -0.23484261 1.6860001
-0.85707009 -0.2243021 1.6860001
-0.85736525 -0.21249671 1.6860001
-0.85546792 -0.20743731 1.6860001
-0.86179227 -0.19183731 1.6860001
-0.85687339 -0.19429678 1.6860001
-0.86474359 -0.18445896 1.6860001
-0.85588956 -0.18888597 1.6860001
-0.86474359 -0.1770806 1.6860001
-0.85687339 -0.16527523 1.6860002
-0.85293823 -0.15937254 1.6860001
-0.84762585 -0.15169905 1.6860001
-0.84605175 -0.1442879 1.686
-0.85293823 -0.13428612 1.6860001
-0.84644526 -0.13812287 1.6860001
-0.85441387 -0.12543209 1.6860001
-0.85588956 -0.1151024 1.6860001
-0.85884088 -0.10329702 1.6860002
-0.85884088 -0.095918655 1.6860001
-0.85884088 -0.085588954 1.6860002
-0.85687339 -0.062961996 1.6860002
-0.85785711 -0.053616069 1.6860001
-0.85736531 -0.04427015 1.6860001
-0.85588956 -0.035416119 1.6860001
-0.85529929 -0.025381554 1.6860001
-0.85785711 -0.014756717 1.6860002
-0.85884088 -0.0073783584 1.6860001
-0.8566274 0.0044270149 1.6860001
-0.85736525 0.014756717 1.6860001
-0.85470909 0.025971821 1.6860001
-0.85411876 0.03482585 1.6860001
-0.84998685 0.04427015 1.6860001
-0.85470897 0.055485256 1.6860001
-0.8566274 0.064929552 1.6860001
-0.85647982 0.075554393 1.6860001
-0.85490578 0.085588962 1.6860002
-0.85293823 0.09149164 1.6860001
-0.85470909 0.10565809 1.6860001
-0.86637568 -0.70575273 1.6940001
-0.86514008 -0.69537395 1.6940001
-0.87181211 -0.68796057 1.6940001
-0.86706764 -0.6855883 1.6940001
-0.86715233 -0.67525208 1.6940001
-0.86439878 -0.66572046 1.6940001
-0.85995072 -0.66127247 1.6940001
-0.85995072 -0.65534174 1.6940001
-0.86291611 -0.64051503 1.6940001
-0.85995072 -0.64496303 1.6940001
-0.86291617 -0.63458437 1.6940001
-0.85995072 -0.63161898 1.6940001
-0.86291611 -0.62865365 1.6940001
-0.85995072 -0.62568831 1.6940001
-0.86291611 -0.61086154 1.6940001
-0.85995072 -0.6153096 1.6940001
-0.86291611 -0.60493088 1.6940001
-0.85995072 -0.60493088 1.6940001
-0.86291611 -0.59751749 1.6940001
-0.85995072 -0.59455216 1.6940001
-0.85995072 -0.58417344 1.6940001
-0.85995072 -0.57527745 1.6940001
-0.85896224 -0.56391025 1.6940001
-0.85920942 -0.55526125 1.6940001
-0.86291617 -0.54562396 1.6940001
-0.86291611 -0.53524518 1.6940001
-0.85995072 -0.53376257 1.6940001
-0.86291617 -0.52486646 1.6940001
-0.85995072 -0.52486646 1.6940001
-0.86418694 -0.51385236 1.6940001
-0.86469525 -0.50470209 1.6940001
-0.86439884 -0.49521303 1.6940001
-0.8639046 -0.48582274 1.6940001
-0.85995072 -0.48038629 1.6940001
-0.85995072 -0.4744556 1.6940001
-0.85624403 -0.46481821 1.6940001
-0.85817146 -0.45429119 1.6940001
-0.85920942 -0.44554347 1.6940001
-0.85995072 -0.43590605 1.6940001
-0.85995072 -0.42552733 1.6940001
-0.85817146 -0.41455561 1.6940001
-0.8589623 -0.40575838 1.6940001
-0.858468 -0.39439118 1.6940001
-0.85639232 -0.38608825 1.6940001
-0.85402006 -0.37561068 1.6940001
-0.85402006 -0.36622041 1.6940001
-0.85698539 -0.34249762 1.6940001
-0.85698545 -0.33508426 1.6940001
-0.85797393 -0.32371712 1.6940001
-0.85920942 -0.31506816 1.6940001
-0.85846806 -0.30543077 1.6940001
-0.85624403 -0.29505205 1.6940001
-0.85698539 -0.281708 1.6940001
-0.85817158 -0.27518424 1.6940001
-0.85698545 -0.26638705 1.6940001
-0.8557992 -0.25561294 1.6940001
-0.86291611 -0.24612384 1.6940001
-0.85817146 -0.24553075 1.6940001
-0.85698545 -0.23426245 1.6940001
-0.85624403 -0.22536638 1.6940001
-0.85698545 -0.21647036 1.6940001
-0.85500854 -0.20460896 1.6940001
-0.85599697 -0.19571292 1.6940001
-0.86439872 -0.18533424 1.6940001
-0.85747957 -0.1868169 1.6940001
-0.8639046 -0.17495549 1.6940001
-0.85698539 -0.16546638 1.6940001
-0.85253739 -0.15716341 1.6940001
-0.8436414 -0.14530203 1.6940001
-0.85253739 -0.13344063 1.6940001
-0.84597129 -0.13428788 1.6940001
-0.85476142 -0.12454459 1.6940001
-0.85613817 -0.11564855 1.6940001
-0.85846806 -0.10526983 1.6940001
-0.86291611 -0.09192577 1.6940001
-0.85846806 -0.094891123 1.6940001
-0.8589623 -0.083523951 1.6940001
-0.85876459 -0.073540621 1.6940001
-0.85797381 -0.065237641 1.6940001
-0.85817146 -0.055155464 1.6940001
-0.85698545 -0.044480216 1.6940001
-0.85698545 -0.03558417 1.6940001
-0.85550278 -0.025699679 1.6940001
-0.85817146 -0.014233668 1.6940001
-0.85876459 -0.0059306952 1.6940001
-0.85757846 0.0035584166 1.6940001
-0.85599697 0.014332513 1.6940001
-0.85550272 0.025205452 1.6940001
-0.85402006 0.035584167 1.6940001
-0.85204315 0.044480216 1.6940001
-0.85359651 0.056341603 1.6940001
-0.85402006 0.065608315 1.6940001
-0.85550278 0.074133687 1.6940001
-0.85529101 0.083876975 1.6940001
-0.85520619 0.09548419 1.6940001
-0.85698539 0.10971785 1.6940001
-0.86550152 -0.71206492 1.702
-0.86358619 -0.70525497 1.702
-0.86599815 -0.69418883 1.702
-0.86699122 -0.68525076 1.702
-0.8648631 -0.67418462 1.702
-0.86177731 -0.66514015 1.702
-0.85805315 -0.66439533 1.702
-0.86103249 -0.65545726 1.702
-0.86162835 -0.64413565 1.702
-0.86177731 -0.63534665 1.702
-0.86103249 -0.62566376 1.702
-0.85805315 -0.62566376 1.702
-0.86103249 -0.61523604 1.702
-0.85805315 -0.61672574 1.702
-0.86103249 -0.60480833 1.702
-0.85805315 -0.60629797 1.702
-0.86103249 -0.59587026 1.702
-0.85805315 -0.59438062 1.702
-0.86103249 -0.58544248 1.702
-0.86103249 -0.57501483 1.702
-0.85805315 -0.57352507 1.702
-0.86103249 -0.56905609 1.702
-0.85745728 -0.56428915 1.702
-0.86177731 -0.55341446 1.702
-0.86326694 -0.54596609 1.702
-0.86103249 -0.53479356 1.702
-0.85805315 -0.53181422 1.702
-0.86177731 -0.52362096 1.702
-0.86282009 -0.51542777 1.702
-0.86301869 -0.50483447 1.7019999
-0.85805315 -0.50351036 1.702
-0.86326694 -0.49531716 1.702
-0.86401182 -0.48712391 1.702
-0.86103249 -0.47669619 1.702
-0.85805315 -0.47073749 1.702
-0.85706007 -0.46378565 1.702
-0.86103249 -0.45584074 1.702
-0.85730833 -0.45658556 1.702
-0.86103249 -0.44392332 1.702
-0.85805315 -0.44541299 1.702
-0.86103249 -0.43498525 1.702
-0.85656345 -0.43200591 1.702
-0.86103249 -0.42604727 1.702
-0.85805315 -0.42455757 1.702
-0.85730833 -0.41487464 1.702
-0.86103249 -0.40370208 1.702
-0.85805315 -0.40519178 1.702
-0.85656351 -0.39476404 1.7019999
-0.85408068 -0.38433632 1.702
-0.85507381 -0.37539828 1.702
-0.85706007 -0.364474 1.702
-0.85805315 -0.35454282 1.702
-0.85805315 -0.34560475 1.702
-0.85706007 -0.33617014 1.702
-0.85730833 -0.32474929 1.702
-0.86103249 -0.31432155 1.702
-0.85805315 -0.31581122 1.702
-0.86103249 -0.30836284 1.702
-0.85805315 -0.3053835 1.702
-0.85805315 -0.29644543 1.702
-0.85805315 -0.28452802 1.702
-0.85805315 -0.2741003 1.702
-0.85626554 -0.26456639 1.702
-0.85626554 -0.25443658 1.702
-0.86103249 -0.24728616 1.702
-0.85805315 -0.2443068 1.702
-0.85805315 -0.23536876 1.702
-0.85686141 -0.22404721 1.702
-0.85686141 -0.21391742 1.702
-0.85581863 -0.20483039 1.702
-0.85606694 -0.19564407 1.702
-0.86252213 -0.18174042 1.702
-0.85730833 -0.18471979 1.702
-0.86401182 -0.17615414 1.7019999
-0.85805315 -0.17578173 1.702
-0.85606694 -0.16436088 1.702
-0.85507381 -0.13109145 1.702
-0.85388201 -0.12572864 1.702
-0.85581863 -0.11470502 1.702
-0.85805315 -0.1042773 1.702
-0.85805315 -0.095339239 1.702
-0.86103249 -0.087890863 1.702
-0.85805315 -0.081932157 1.702
-0.86103249 -0.077463135 1.702
-0.85805315 -0.074483782 1.702
-0.86103249 -0.068525076 1.702
-0.85706007 -0.063559495 1.702
-0.86103249 -0.059587024 1.702
-0.85805315 -0.055117995 1.702
-0.85686141 -0.044094395 1.702
-0.85686141 -0.035156347 1.702
-0.85581863 -0.025324486 1.702
-0.85730833 -0.014896756 1.702
-0.86103249 -0.0059587024 1.702
-0.85805315 -0.0059587024 1.702
-0.85656351 0.0044690268 1.7019999
-0.85706007 0.015889874 1.702
-0.85606694 0.024331369 1.702
-0.85581863 0.035752214 1.702
-0.85283935 0.044690266 1.702
-0.8530876 0.054124884 1.702
-0.85358411 0.064800888 1.702
-0.84911507 0.06554573 1.702
-0.85358417 0.074483782 1.702
-0.84911507 0.075973451 1.702
-0.8540808 0.083918393 1.702
-0.85507381 0.092359886 1.702
-0.85805315 0.1042773 1.702
-0.86699122 0.11321534 1.702
-0.85805315 0.110236 1.702
-0.8632021 -0.71392941 1.7158002
-0.86400235 -0.70489073 1.7150002
-0.86585033 -0.69448298 1.7150002
-0.86507118 -0.68540925 1.7163335
-0.86269629 -0.67545301 1.7142003
-0.85959536 -0.67389876 1.7110001
-0.86260313 -0.66437435 1.7158002
-0.85959536 -0.66641104 1.7110001
-0.86310244 -0.65595704 1.7150002
-0.86293876 -0.64628464 1.7163333
-0.8615979 -0.63644332 1.715
-0.85959542 -0.63496244 1.7110002
-0.86259043 -0.62897217 1.7110001
-0.85959542 -0.6259771 1.7110002
-0.86185396 -0.61389297 1.717
-0.85959542 -0.61599344 1.7110002
-0.86139935 -0.60430419 1.7158002
-0.85959542 -0.6050114 1.7110002
-0.86139947 -0.59409565 1.7158002
-0.85959536 -0.5945285 1.7110001
-0.86210358 -0.58535534 1.7166001
-0.86060542 -0.57473993 1.7190002
-0.85959542 -0.57506031 1.7110002
-0.86110163 -0.56430566 1.7170001
-0.85959542 -0.56407827 1.7110002
-0.86315489 -0.5551188 1.7175456
-0.86397922 -0.5448215 1.7160001
-0.86159796 -0.53587621 1.7150002
-0.85959542 -0.53312886 1.7110002
-0.8615979 -0.52386427 1.715
-0.85959542 -0.52414358 1.7110002
-0.8621676 -0.51532876 1.7144287
-0.85859579 -0.51485801 1.7150002
-0.86192882 -0.50295895 1.7136668
-0.85834682 -0.50526524 1.7130002
-0.86337012 -0.49497378 1.7153078
-0.86546731 -0.48467621 1.7167144
-0.86160421 -0.47619769 1.7174002
-0.85892904 -0.47196287 1.7136668
-0.86060542 -0.46490747 1.7190001
-0.85799617 -0.46537328 1.7174
-0.86060542 -0.45437559 1.7190002
-0.85859585 -0.45481583 1.7150002
-0.86110169 -0.44408131 1.717
-0.85919553 -0.44428635 1.7126001
-0.8615979 -0.4383077 1.7150002
-0.85784709 -0.43417895 1.7150002
-0.85793066 -0.42496485 1.7136668
-0.86060542 -0.41224805 1.7190001
-0.85797244 -0.41530704 1.7130002
-0.86060542 -0.40773439 1.7190001
-0.85819668 -0.40329003 1.7142
-0.86060542 -0.39419338 1.7190001
-0.85709822 -0.39627472 1.7150002
-0.85709828 -0.38526818 1.715
-0.86060542 -0.37463415 1.7190001
-0.85660022 -0.37289065 1.7110001
-0.86180907 -0.36350045 1.7190001
-0.85959536 -0.36690044 1.7110001
-0.86160845 -0.35507494 1.7190002
-0.85959536 -0.35492003 1.7110001
-0.86060542 -0.34755218 1.7190001
-0.8580966 -0.34373781 1.7150002
-0.86060542 -0.33551574 1.7190001
-0.85759515 -0.33372849 1.7150002
-0.86060542 -0.32197475 1.7190001
-0.85759628 -0.32597542 1.7136668
-0.86060542 -0.31896564 1.7190001
-0.85959542 -0.31448609 1.7110002
-0.86060542 -0.30542463 1.7190001
-0.85959542 -0.30550081 1.7110002
-0.86060542 -0.29489276 1.7190002
-0.85959536 -0.2950179 1.7110001
-0.86135769 -0.28511316 1.7190001
-0.85959536 -0.28603262 1.7110001
-0.86060542 -0.27683812 1.7190002
-0.85959542 -0.27554971 1.7110002
-0.86060542 -0.26630622 1.7190001
-0.85734725 -0.26374477 1.717
-0.8636145 -0.25276521 1.7190001
-0.85709822 -0.25818127 1.7150002
-0.8636145 -0.24975611 1.7190001
-0.8579306 -0.24448156 1.7136669
-0.86060542 -0.233206 1.7190001
-0.85959542 -0.23361824 1.7110002
-0.86060542 -0.22417867 1.7190001
-0.85793066 -0.22698444 1.7136668
-0.86060542 -0.21966501 1.7190001
-0.85759747 -0.21464722 1.715
-0.86060542 -0.20612402 1.7190001
-0.85709822 -0.20413983 1.7150002
-0.86060542 -0.19559214 1.7190002
-0.86060542 -0.18455873 1.7190002
-0.85859698 -0.18569657 1.7110002
-0.86261147 -0.17553139 1.7190002
-0.85859698 -0.17371613 1.7110002
-0.85716748 -0.16559681 1.7155716
-0.84545058 -0.14448103 1.7144289
-0.86060542 -0.11284161 1.7190001
-0.85759801 -0.11469233 1.7130001
-0.86060542 -0.10531884 1.7190002
-0.85959542 -0.1048287 1.7110002
-0.86060542 -0.094786957 1.7190001
-0.85959542 -0.09584339 1.7110002
-0.86139935 -0.085895292 1.7158002
-0.85959536 -0.085360512 1.7110001
-0.86060542 -0.0767323 1.7190001
-0.85884655 -0.074128866 1.7110001
-0.86110169 -0.066119894 1.717
-0.85859698 -0.065892324 1.7110002
-0.86060542 -0.054163978 1.7190002
-0.85959536 -0.055409458 1.7110001
-0.86060542 -0.048145756 1.7190001
-0.85709596 -0.04402858 1.7150002
-0.85715204 -0.03569873 1.7154444
-0.86060542 -0.021063767 1.7190001
-0.85739851 -0.02578312 1.7126001
-0.86060542 -0.018054659 1.7190001
-0.85859698 -0.014975528 1.7110002
-0.86135769 -0.0060182195 1.7190001
-0.85959536 -0.0059902114 1.7110001
-0.86060542 0.0045136646 1.7190001
-0.85726428 0.0045066625 1.7163334
-0.86060542 0.018054659 1.7190001
-0.85759765 0.014401714 1.7142
-0.85702717 0.024864605 1.7144289
-0.85716945 0.035177551 1.7155716
-0.85559446 0.045091834 1.7174
-0.85402608 0.054875679 1.7144289
-0.85225838 0.065593861 1.7163334
-0.85145277 0.074599825 1.7144287
-0.85384315 0.085306987 1.715
-0.85709542 0.095464222 1.7150002
-0.86060542 0.10531884 1.7190002
-0.85909557 0.10419896 1.7130001
-0.86060542 0.11133706 1.7190001
-0.85959536 0.11081891 1.7110001
-0.8635987 -0.72294253 1.728
-0.86269134 -0.71628791 1.728
-0.85906142 -0.71386802 1.728
-0.86561537 -0.70479339 1.728
-0.85906142 -0.70781821 1.728
-0.86329621 -0.69571877 1.728
-0.8620863 -0.68513179 1.728
-0.8620863 -0.67454475 1.728
-0.86435491 -0.66622633 1.728
-0.8633827 -0.65509921 1.728
-0.85906142 -0.65337068 1.728
-0.8628425 -0.64505231 1.728
-0.86329621 -0.63461655 1.728
-0.8635987 -0.6246345 1.7279999
-0.8620863 -0.61404747 1.728
-0.85906142 -0.61404747 1.728
-0.8620863 -0.60497284 1.728
-0.85906142 -0.60497284 1.728
-0.8620863 -0.59589833 1.728
-0.85906142 -0.59589827 1.728
-0.8620863 -0.58531123 1.728
-0.8620863 -0.5747242 1.728
-0.8620863 -0.56564963 1.728
-0.86309469 -0.55405438 1.728
-0.8628425 -0.54523176 1.728
-0.86329621 -0.53479594 1.728
-0.8620863 -0.52632642 1.728
-0.85906142 -0.52330154 1.728
-0.85906142 -0.51271451 1.728
-0.8620863 -0.50363994 1.728
-0.85906142 -0.50666475 1.728
-0.86435497 -0.49305284 1.7279999
-0.86329621 -0.48458323 1.728
-0.85906142 -0.48095343 1.728
-0.8620863 -0.47792855 1.728
-0.85754907 -0.47490367 1.728
-0.85785151 -0.46643409 1.728
-0.8620863 -0.45070478 1.728
-0.85906142 -0.45524207 1.728
-0.8620863 -0.44767991 1.728
-0.85906142 -0.44314259 1.728
-0.85785151 -0.43497548 1.728
-0.85754895 -0.4249934 1.7279999
-0.8620863 -0.41289395 1.728
-0.85906142 -0.41591883 1.728
-0.8620863 -0.40835667 1.728
-0.85906142 -0.40381938 1.728
-0.8620863 -0.39323235 1.728
-0.85906142 -0.39524895 1.728
-0.8620863 -0.3811329 1.728
-0.85906142 -0.38415775 1.728
-0.8620863 -0.37508318 1.728
-0.85906142 -0.37508318 1.728
-0.8620863 -0.36600861 1.728
-0.85906142 -0.36600858 1.728
-0.8628425 -0.35542154 1.728
-0.85906142 -0.35592574 1.728
-0.85906142 -0.34483454 1.728
-0.8620863 -0.33878478 1.728
-0.85805315 -0.33575994 1.728
-0.8620863 -0.32214803 1.728
-0.85754901 -0.32668534 1.728
-0.86329621 -0.31519088 1.728
-0.85785151 -0.31398091 1.728
-0.8620863 -0.3055113 1.728
-0.85906142 -0.3055113 1.728
-0.8620863 -0.29542843 1.728
-0.85906142 -0.29794914 1.728
-0.8620863 -0.28433722 1.728
-0.86309457 -0.27526265 1.728
-0.85906142 -0.27526265 1.728
-0.85906142 -0.26770049 1.728
-0.86435491 -0.25484481 1.728
-0.86511123 -0.24198914 1.728
-0.85906142 -0.24803887 1.728
-0.8628425 -0.23669562 1.728
-0.85906142 -0.23593943 1.728
-0.8620863 -0.22383997 1.728
-0.85906142 -0.22535238 1.728
-0.85906142 -0.21476537 1.728
-0.8620863 -0.20871563 1.728
-0.85906142 -0.20569079 1.728
-0.8620863 -0.19510375 1.728
-0.8620863 -0.18451673 1.728
-0.86309457 -0.17544214 1.728
-0.85906142 -0.17241727 1.728
-0.85805315 -0.16535924 1.728
-0.84575206 -0.1451935 1.728
-0.85704488 -0.11595313 1.728
-0.8620863 -0.10587025 1.728
-0.85785151 -0.10526527 1.728
-0.8620863 -0.095283225 1.728
-0.85776508 -0.095067173 1.728
-0.8620863 -0.084696196 1.728
-0.8620863 -0.075621612 1.728
-0.85906142 -0.072596744 1.728
-0.8620863 -0.065034583 1.728
-0.85906142 -0.062009718 1.728
-0.8620863 -0.054447558 1.728
-0.85906142 -0.054447558 1.728
-0.8620863 -0.048397828 1.728
-0.85754901 -0.045372963 1.728
-0.85785151 -0.0356934 1.728
-0.84998685 -0.036298372 1.728
-0.8620863 -0.022686481 1.728
-0.85906142 -0.024198916 1.728
-0.8628425 -0.014368105 1.728
-0.85906142 -0.015124321 1.728
-0.8620863 -0.006049729 1.728
-0.85906142 -0.0060497285 1.728
-0.85906142 0.0045372965 1.728
-0.8620863 0.018149186 1.728
-0.85906142 0.015124321 1.728
-0.85906142 0.024198916 1.728
-0.85906142 0.034785938 1.728
-0.85679281 0.045372963 1.728
-0.8560366 0.054447558 1.728
-0.85422164 0.064732097 1.728
-0.85301179 0.075621605 1.728
-0.85704488 0.096291512 1.728
-0.8620863 0.10738268 1.728
-0.85754895 0.10587025 1.728
-0.8635987 0.11343241 1.728
-0.85906142 0.11191998 1.728
-0.8630386 -0.72477007 1.7360001
-0.85924 -0.72249097 1.7360001
-0.85848033 -0.71413416 1.7360001
-0.86425418 -0.70562524 1.7360001
-0.85999978 -0.70501745 1.7360001
-0.86303866 -0.69590086 1.7360001
-0.85924 -0.69514108 1.7360001
-0.8630386 -0.68526483 1.7360001
-0.85939199 -0.68617648 1.7360001
-0.86303866 -0.67462873 1.7360001
-0.85999978 -0.67462873 1.7360001
-0.86425418 -0.66611999 1.7360001
-0.85898679 -0.6634863 1.7360001
-0.86303866 -0.65436965 1.7360001
-0.85898679 -0.65588903 1.7360001
-0.86303866 -0.64424008 1.7360001
-0.85999972 -0.64727896 1.7360001
-0.86303866 -0.63512349 1.7360001
-0.86303866 -0.62600684 1.7360001
-0.85924 -0.62524712 1.7360001
-0.85848027 -0.61537081 1.7360001
-0.85782915 -0.605169 1.7360002
-0.8630386 -0.59257931 1.7360001
-0.85848033 -0.59561825 1.7360001
-0.8630386 -0.58498216 1.7360001
-0.85999972 -0.58802104 1.7360001
-0.86303866 -0.57434618 1.7360001
-0.86303866 -0.56522954 1.7360001
-0.85999972 -0.56522954 1.7360001
-0.8630386 -0.55459344 1.7360001
-0.85999972 -0.55459344 1.7360001
-0.86303866 -0.54395747 1.7360001
-0.85999972 -0.54395747 1.7360001
-0.86303866 -0.53484082 1.7360001
-0.85999972 -0.53180194 1.7360001
-0.85999978 -0.52572429 1.7360001
-0.8630386 -0.51964647 1.7360001
-0.85898679 -0.51407528 1.7360001
-0.8630386 -0.50293267 1.7360001
-0.85924 -0.50369245 1.7360001
-0.86303866 -0.49533555 1.7360001
-0.85999978 -0.49533555 1.7360001
-0.8630386 -0.48773837 1.7360001
-0.8587842 -0.48439559 1.7360001
-0.85696095 -0.47406349 1.7360001
-0.85848033 -0.46494684 1.7360001
-0.85999978 -0.45583028 1.7360001
-0.8630386 -0.44975251 1.7360001
-0.85869741 -0.44454303 1.7360002
-0.85696095 -0.43455815 1.7360001
-0.85696095 -0.42544159 1.7360001
-0.8630386 -0.41176665 1.7360001
-0.85898679 -0.41835091 1.7360001
-0.85999978 -0.4041695 1.7360001
-0.8630386 -0.39505288 1.7360001
-0.85999972 -0.39201403 1.7360001
-0.85924006 -0.38593626 1.7360001
-0.85999972 -0.37530023 1.7360001
-0.85999972 -0.36618364 1.7360001
-0.86455804 -0.35554761 1.7360001
-0.85999972 -0.35250872 1.7360001
-0.85869741 -0.34556276 1.7360002
-0.85848033 -0.33427548 1.7360001
-0.8630386 -0.32212004 1.7360001
-0.85999972 -0.32363945 1.7360001
-0.85848033 -0.3160423 1.7360001
-0.85848027 -0.30540627 1.7360001
-0.86405158 -0.29375726 1.7360001
-0.85848033 -0.29477024 1.7360001
-0.86379832 -0.28565359 1.7360001
-0.85848033 -0.28565359 1.7360001
-0.86405158 -0.27552408 1.7360001
-0.85999972 -0.27501759 1.7360001
-0.8630386 -0.26134267 1.7360001
-0.85999978 -0.26438153 1.7360001
-0.86455804 -0.25526494 1.7360001
-0.8630386 -0.24462891 1.7360001
-0.85924 -0.24462891 1.7360001
-0.8587842 -0.23460065 1.7360001
-0.8630386 -0.2263957 1.7360001
-0.85999972 -0.22335681 1.7360001
-0.85999978 -0.21575966 1.7360001
-0.8630386 -0.20056531 1.7360001
-0.85924 -0.20664304 1.7360001
-0.86303866 -0.19448757 1.7360001
-0.86303866 -0.18537097 1.7360001
-0.86405158 -0.17828028 1.7360001
-0.85898679 -0.17220256 1.7360001
-0.85848033 -0.16409889 1.7360001
-0.85756868 -0.10575262 1.7360001
-0.85797381 -0.094204925 1.7360001
-0.86303866 -0.085088313 1.7360001
-0.85999978 -0.085088313 1.7360001
-0.8630386 -0.077491142 1.7360001
-0.85999978 -0.075971708 1.7360001
-0.8630386 -0.068374537 1.7360001
-0.85999972 -0.065335669 1.7360001
-0.85999978 -0.05469963 1.7360001
-0.85620117 -0.045583025 1.7360001
-0.85746735 -0.033934031 1.7360001
-0.85848033 -0.024310946 1.7360001
-0.85848033 -0.015194342 1.7360001
-0.8630386 -0.0060777366 1.7360001
-0.8587842 -0.0066855103 1.7360001
-0.85848027 0.0045583025 1.7360001
-0.85848033 0.015194342 1.7360001
-0.85848033 0.024310946 1.7360001
-0.85797381 0.035453465 1.7360001
-0.85544145 0.045583025 1.7360001
-0.85479027 0.055133753 1.7360002
-0.8545298 0.064424008 1.7360001
-0.85392207 0.075971708 1.7360001
-0.85620117 0.084328592 1.7360001
-0.85574532 0.094812691 1.7360001
-0.85493493 0.10534743 1.7360001
-0.86405158 0.11648995 1.7360001
-0.8563531 0.11578088 1.7360001
-0.85240257 0.12155473 1.7360001
-0.84480542 0.12155473 1.7360001
-0.86140364 -0.73005486 1.7450001
-0.86140364 -0.72700024 1.7450001
-0.86140364 -0.71172708 1.7450001
-0.86140364 -0.70561785 1.7450002
-0.86140364 -0.69492668 1.7450001
-0.86140364 -0.68423551 1.7450002
-0.85834903 -0.6827082 1.7450001
-0.8621673 -0.674308 1.7450001
-0.85834903 -0.67812628 1.7450001
-0.86140364 -0.66896242 1.7450001
-0.85834903 -0.66438043 1.7450001
-0.86140364 -0.65368927 1.7450002
-0.85834903 -0.65827119 1.7450001
-0.86445826 -0.64452541 1.7450002
-0.86344004 -0.63536155 1.7450002
-0.86140364 -0.62925231 1.7450001
-0.85834903 -0.62314308 1.7450002
-0.85682172 -0.61397916 1.7450001
-0.85712719 -0.60542625 1.7450001
-0.86140364 -0.59259683 1.7450001
-0.85834903 -0.59870607 1.7450001
-0.86369461 -0.58496028 1.7450001
-0.86293095 -0.57426906 1.7450001
-0.8621673 -0.56586885 1.7450001
-0.86140364 -0.55594134 1.7450002
-0.86242187 -0.54474109 1.7450001
-0.8621673 -0.53532267 1.7450001
-0.86140364 -0.5253951 1.7450002
-0.86140364 -0.51470393 1.7450001
-0.85616714 -0.5162313 1.7450001
-0.86140364 -0.50401276 1.7450001
-0.85834903 -0.50248545 1.7450001
-0.86140364 -0.49484891 1.7450002
-0.85834903 -0.49484891 1.7450002
-0.86140364 -0.48873964 1.7450001
-0.85834903 -0.48568505 1.7450002
-0.85834903 -0.47499382 1.7450001
-0.86140364 -0.46277535 1.7450001
-0.86140364 -0.4551388 1.7450002
-0.85758537 -0.44521129 1.7450001
-0.85682166 -0.43528372 1.745
-0.85758537 -0.42535621 1.7450001
-0.86344004 -0.41542873 1.7450002
-0.86445826 -0.40015557 1.7450001
-0.86242187 -0.39404637 1.7450002
-0.85834903 -0.39099172 1.7450001
-0.86140364 -0.38335517 1.7450001
-0.85834903 -0.38488251 1.7450002
-0.86140364 -0.37571859 1.7450002
-0.85834903 -0.37877321 1.7450001
-0.86262554 -0.36411104 1.7450001
-0.86242187 -0.35637268 1.7450002
-0.86140364 -0.34211776 1.7450001
-0.85834903 -0.34517238 1.7450002
-0.86140364 -0.33753583 1.7450001
-0.85834903 -0.33600849 1.7450001
-0.86140364 -0.32531732 1.7450001
-0.85834903 -0.32989925 1.7450001
-0.86140364 -0.31768078 1.7450001
-0.85834903 -0.31309885 1.7450001
-0.85834903 -0.3054623 1.7450002
-0.85834903 -0.2932438 1.7450001
-0.86140364 -0.28102529 1.7450001
-0.86140364 -0.27797067 1.7450001
-0.86751288 -0.2657522 1.7450001
-0.86445826 -0.25658831 1.7450001
-0.86293095 -0.24284251 1.7450001
-0.86140364 -0.23215133 1.7450001
-0.8621673 -0.22680575 1.7450001
-0.85834903 -0.22451478 1.7450001
-0.86140364 -0.21535091 1.7450001
-0.85834903 -0.21840553 1.7450001
-0.86242187 -0.20262334 1.7450002
-0.85834903 -0.20771435 1.7450001
-0.86445826 -0.19549587 1.7450002
-0.86344004 -0.18582289 1.7450001
-0.86242187 -0.17513171 1.7450002
-0.85834903 -0.1741135 1.7450001
-0.86140364 -0.16800426 1.7450001
-0.85834903 -0.10538448 1.7450001
-0.86140364 -0.097747929 1.7450001
-0.85834903 -0.096220613 1.7450001
-0.86140364 -0.085529439 1.7450002
-0.85834903 -0.085529439 1.7450001
-0.86140364 -0.074838258 1.7450001
-0.86140364 -0.064147085 1.7450002
-0.86140364 -0.05498321 1.7450002
-0.86140364 -0.045819342 1.7450001
-0.86140364 -0.039710097 1.7450001
-0.85834903 -0.032073539 1.7450001
-0.85834903 -0.024436984 1.7450002
-0.85758537 -0.016036771 1.7450001
-0.86140364 -0.0030546228 1.7450001
-0.85834903 -0.0061092461 1.7450002
-0.85834903 0.0045819343 1.7450001
-0.85758537 0.015273114 1.7450001
-0.85758537 0.025200639 1.7450001
-0.85712719 0.035433628 1.7450001
-0.85529441 0.045819342 1.7450002
-0.85427618 0.05498321 1.7450002
-0.85529441 0.064147085 1.7450002
-0.85398525 0.075492829 1.7450001
-0.8573308 0.085529439 1.7450002
-0.85605806 0.093929648 1.7450001
-0.85407257 0.10568994 1.7450001
-0.85346168 0.11546474 1.7450001
-0.8476578 0.11913029 1.7450001
-0.86277604 -0.73228496 1.7540001
-0.86277604 -0.72460908 1.7540001
-0.85970563 -0.72153866 1.7540001
-0.86277604 -0.71693313 1.7540001
-0.85970563 -0.71846831 1.7540001
-0.86277604 -0.70158124 1.7540001
-0.85868216 -0.70106953 1.7540001
-0.86277604 -0.69390529 1.7540001
-0.85970563 -0.69544047 1.7540001
-0.85970563 -0.68469417 1.7540001
-0.86277604 -0.67548299 1.7540001
-0.85970563 -0.67548299 1.7540001
-0.85970563 -0.66473669 1.7540001
-0.86354363 -0.6532228 1.7540001
-0.86431122 -0.64477921 1.7540001
-0.86354363 -0.63633573 1.7540001
-0.85970563 -0.62482178 1.7540001
-0.85663527 -0.61407542 1.7540001
-0.85817045 -0.60409671 1.7540001
-0.86277604 -0.59565318 1.7540001
-0.85970563 -0.59565318 1.7540001
-0.86431122 -0.58490688 1.7539999
-0.86277604 -0.57416058 1.7540001
-0.85970563 -0.57416058 1.7540001
-0.86277604 -0.56494939 1.7540001
-0.86277604 -0.55573833 1.7540001
-0.86277604 -0.54345679 1.7540001
-0.86277604 -0.53424567 1.7540001
-0.85970563 -0.53424567 1.7540001
-0.86277604 -0.52656972 1.7540001
-0.85817045 -0.52503455 1.7540001
-0.86277604 -0.51275301 1.7540001
-0.85765874 -0.51377648 1.7540001
-0.86277604 -0.50968266 1.7540001
-0.85970563 -0.5066123 1.7540001
-0.85970563 -0.49126038 1.7540001
-0.85847753 -0.4845055 1.7540001
-0.85970563 -0.47590849 1.7540001
-0.86277604 -0.46516216 1.7540001
-0.86277604 -0.45595104 1.7540001
-0.85970563 -0.45134547 1.7540001
-0.85765874 -0.44520473 1.7540001
-0.85663527 -0.43599355 1.7540001
-0.86277604 -0.42064169 1.7540001
-0.85868216 -0.42678246 1.7540001
-0.8658464 -0.41450095 1.7540001
-0.8658464 -0.40528983 1.7540001
-0.86379951 -0.39812562 1.7540001
-0.85909158 -0.38625345 1.7540001
-0.86277604 -0.37151566 1.7540001
-0.86354363 -0.36537489 1.7540001
-0.86277604 -0.35616374 1.7540001
-0.85817045 -0.35309339 1.7540001
-0.85847753 -0.34449634 1.7540001
-0.86277604 -0.33774149 1.7540001
-0.85970563 -0.33467111 1.7540001
-0.86277604 -0.32546002 1.7540001
-0.86277604 -0.31931925 1.7540001
-0.85970563 -0.31624886 1.7540001
-0.86277604 -0.30089697 1.7540001
-0.86277604 -0.29475623 1.7540001
-0.86277604 -0.28861547 1.7540001
-0.8658464 -0.27326357 1.7540001
-0.8658464 -0.26558763 1.7540001
-0.8658464 -0.25484133 1.7540001
-0.8658464 -0.24870056 1.7540001
-0.86277604 -0.23488387 1.7540001
-0.86277604 -0.21339121 1.7540001
-0.86277604 -0.20571528 1.7540001
-0.86409193 -0.1956269 1.7540001
-0.86400414 -0.18360856 1.7540001
-0.86277604 -0.17501152 1.7540001
-0.85970563 -0.1750115 1.7540001
-0.86277604 -0.16733557 1.7540001
-0.85970563 -0.16272999 1.7540001
-0.85970563 -0.10439283 1.7540001
-0.86277604 -0.092111319 1.7540001
-0.86277604 -0.085970566 1.7540001
-0.85970563 -0.084435374 1.7540001
-0.86277604 -0.075224251 1.7540001
-0.85970563 -0.075735979 1.7540001
-0.86277604 -0.064477921 1.7540001
-0.85970563 -0.066013113 1.7540001
-0.86277604 -0.05526679 1.7540001
-0.86277604 -0.049126036 1.7540001
-0.85970563 -0.03223896 1.7540001
-0.85847753 -0.02456302 1.7540001
-0.85786343 -0.01473781 1.7540001
-0.85847753 -0.00675483 1.7540001
-0.85868216 0.0046055662 1.7540001
-0.85786343 0.015351887 1.7540001
-0.85714698 0.02456302 1.7540001
-0.85786343 0.034388226 1.7540001
-0.85586768 0.04605566 1.7540001
-0.85663527 0.053731602 1.7540001
-0.85586768 0.064477921 1.7540001
-0.85433245 0.075224243 1.7540001
-0.85714698 0.085970573 1.7540001
-0.85663527 0.095181696 1.7540001
-0.8556118 0.10439283 1.7540001
-0.8523367 0.11421803 1.7540001
-0.84742415 0.11974471 1.7540001
-0.86334538 -0.73527086 1.7630001
-0.86205953 -0.72524095 1.7630002
-0.86373103 -0.7155968 1.7630002
-0.86288244 -0.70734137 1.7630001
-0.85671014 -0.70302081 1.7630001
-0.86180234 -0.69437969 1.7630001
-0.85671014 -0.69499689 1.7630001
-0.86103076 -0.68512124 1.7630002
-0.85794467 -0.6851213 1.7630002
-0.86103076 -0.67586291 1.7630002
-0.85794461 -0.678949 1.7630001
-0.86164802 -0.66413558 1.7630001
-0.85794461 -0.66506135 1.7630001
-0.86288244 -0.65425992 1.7630001
-0.86411691 -0.64500153 1.7630002
-0.86257386 -0.63574314 1.7630001
-0.86103076 -0.62648475 1.7630002
-0.85794461 -0.62031251 1.7630001
-0.85794467 -0.61414021 1.7630002
-0.86103076 -0.60488182 1.7630001
-0.85794461 -0.60333872 1.7630001
-0.86180234 -0.59485185 1.7630001
-0.85794461 -0.59870958 1.7630001
-0.86257374 -0.58482194 1.7630002
-0.85794461 -0.58173585 1.7630001
-0.86308825 -0.57402056 1.7630002
-0.86411691 -0.56630516 1.7630001
-0.86488843 -0.5547322 1.7630001
-0.86288244 -0.54439372 1.7630001
-0.85794461 -0.54007304 1.7630001
-0.86103076 -0.5339008 1.7630002
-0.85794461 -0.53698695 1.7630001
-0.85794461 -0.5230993 1.7630001
-0.86103076 -0.51229787 1.7630001
-0.85794461 -0.51847011 1.7630001
-0.86180234 -0.50535411 1.7630001
-0.86205947 -0.49635288 1.7630002
-0.86103076 -0.48143655 1.7630001
-0.85794461 -0.48606575 1.7630001
-0.86205947 -0.47526431 1.7630002
-0.86411691 -0.46600589 1.7630002
-0.86257386 -0.45520443 1.7630001
-0.85794461 -0.45057523 1.7630001
-0.85717309 -0.44517452 1.7630001
-0.85794467 -0.4351446 1.7630002
-0.86205947 -0.42588621 1.7630002
-0.8651455 -0.41457033 1.7630002
-0.86411685 -0.40472418 1.7630002
-0.86257386 -0.39656791 1.7630001
-0.85794467 -0.39502487 1.7630002
-0.86103076 -0.38576648 1.7630002
-0.86367595 -0.3743037 1.7630002
-0.8625738 -0.36416358 1.7630002
-0.85794467 -0.35490513 1.7630002
-0.86103076 -0.34256062 1.7630001
-0.85794467 -0.3456468 1.7630002
-0.8625738 -0.33535966 1.7630002
-0.85794461 -0.3394745 1.7630001
-0.86411691 -0.32404384 1.7630002
-0.86411691 -0.31324238 1.7630001
-0.86411691 -0.30552706 1.7630002
-0.86308813 -0.29369688 1.7630002
-0.86565989 -0.28392413 1.7630002
-0.867203 -0.27466574 1.7630002
-0.86617434 -0.26540732 1.7630002
-0.867203 -0.25614893 1.7630002
-0.86488831 -0.24534747 1.7630002
-0.86288244 -0.2339288 1.7630001
-0.85794461 -0.23454602 1.7630001
-0.86288244 -0.2246704 1.7630001
-0.85794461 -0.22683069 1.7630001
-0.86334538 -0.21525769 1.7630001
-0.86308807 -0.20505631 1.7630002
-0.86288244 -0.19504353 1.7630001
-0.8625738 -0.18516791 1.7630002
-0.86226523 -0.1759095 1.7630001
-0.85794461 -0.1759095 1.7630001
-0.86205947 -0.16613677 1.7630002
-0.84498292 -0.1357898 1.7630001
-0.86103076 -0.11110074 1.7630001
-0.86103076 -0.10492848 1.7630002
-0.86288244 -0.09628731 1.7630001
-0.86205953 -0.084354267 1.7630002
-0.86180228 -0.07406716 1.7630001
-0.86180228 -0.064037234 1.7630001
-0.85794461 -0.064808764 1.7630001
-0.8625738 -0.055550374 1.7630002
-0.86257374 -0.04474891 1.7630002
-0.85794467 -0.046291977 1.7630002
-0.86180234 -0.034718983 1.7630001
-0.85794467 -0.033947453 1.7630002
-0.86103076 -0.024689054 1.7630001
-0.85794467 -0.024689054 1.7630002
-0.85794467 -0.015430659 1.7630002
-0.86103076 -0.0030861318 1.7630001
-0.85794467 -0.0061722635 1.7630002
-0.86103076 0.0046291975 1.7630001
-0.8573274 0.0037033581 1.7630001
-0.85640156 0.015430659 1.7630002
-0.85609293 0.024071828 1.7630001
-0.86103076 0.033947449 1.7630001
-0.85717309 0.033175915 1.7630001
-0.85671014 0.045674752 1.7630001
-0.85671014 0.056167599 1.7630001
-0.85609293 0.064808771 1.7630001
-0.85563004 0.073295623 1.7630001
-0.85640156 0.084868625 1.7630001
-0.85794467 0.095670089 1.7630002
-0.85691595 0.10492849 1.7630002
-0.85331547 0.11418688 1.7630001
-0.86232436 -0.74135083 1.7720001
-0.86542624 -0.73514712 1.7720001
-0.86232442 -0.7258414 1.7720001
-0.85922247 -0.72429049 1.7720001
-0.86232442 -0.71653575 1.7720001
-0.85789311 -0.71476328 1.7720003
-0.85612059 -0.70412827 1.7720001
-0.85736132 -0.69420213 1.7720002
-0.85922253 -0.68551683 1.7720001
-0.86232442 -0.67621124 1.7720001
-0.85922247 -0.67776215 1.7720001
-0.86232436 -0.66225266 1.7720001
-0.85922253 -0.6638037 1.7720001
-0.86356515 -0.65449798 1.7720002
-0.86387533 -0.64519238 1.7720002
-0.86232442 -0.63588667 1.7720001
-0.86232436 -0.62813199 1.7720001
-0.85922253 -0.62347913 1.7720001
-0.86232436 -0.61107159 1.7720001
-0.85922247 -0.61107159 1.7720001
-0.85922253 -0.60486782 1.7720001
-0.86232442 -0.59556222 1.7720001
-0.85922253 -0.59556222 1.7720001
-0.86232436 -0.58470559 1.7720001
-0.85922247 -0.58470559 1.7720001
-0.86387527 -0.57384896 1.7720002
-0.86453998 -0.56454337 1.7720003
-0.86387533 -0.55523765 1.7720002
-0.86335838 -0.54799998 1.7720001
-0.86232442 -0.53352445 1.7720001
-0.85922247 -0.53662634 1.7720001
-0.85922253 -0.5242188 1.7720001
-0.86232442 -0.51491314 1.7720001
-0.86232442 -0.50560755 1.7720001
-0.86232442 -0.49630183 1.7720001
-0.85922247 -0.49009803 1.7720001
-0.86232436 -0.48234332 1.7720001
-0.85922247 -0.48699614 1.7720001
-0.86439228 -0.4745886 1.7720001
-0.86465079 -0.46450746 1.7720001
-0.86335838 -0.45804521 1.7720001
-0.85922253 -0.45597729 1.7720001
-0.85844696 -0.44512066 1.7720001
-0.86232436 -0.43116218 1.7720001
-0.85922253 -0.43426406 1.7720001
-0.86387527 -0.42418295 1.7720001
-0.86356509 -0.41627312 1.7720002
-0.85922247 -0.41410181 1.7720001
-0.86309981 -0.4063471 1.7720001
-0.85922247 -0.40479615 1.7720001
-0.86232436 -0.39083767 1.7720001
-0.85922253 -0.39393958 1.7720001
-0.86418551 -0.38339314 1.7720002
-0.85922253 -0.3846339 1.7720001
-0.86387527 -0.37610373 1.7720001
-0.85922253 -0.37532824 1.7720001
-0.86232442 -0.36602259 1.7720001
-0.85922253 -0.36602259 1.7720001
-0.85860217 -0.35423541 1.7720002
-0.85844696 -0.34508482 1.7720001
-0.86309981 -0.33422822 1.7720001
-0.85922247 -0.33810559 1.7720001
-0.86418551 -0.32631844 1.7720002
-0.86480588 -0.31577203 1.7720002
-0.86465079 -0.30320936 1.7720001
-0.86309981 -0.29545468 1.7720001
-0.86387527 -0.28537354 1.7720002
-0.86697721 -0.27606791 1.7720002
-0.87163001 -0.26676223 1.7720001
-0.86728746 -0.26614186 1.7720002
-0.86542624 -0.25435469 1.7720003
-0.85922247 -0.2512528 1.7720001
-0.86356509 -0.24566939 1.7720002
-0.85922253 -0.24504903 1.7720001
-0.86335838 -0.23677734 1.7720001
-0.85922253 -0.23574337 1.7720001
-0.86387527 -0.2233358 1.7720001
-0.85922247 -0.22488676 1.7720001
-0.86309981 -0.21480562 1.7720001
-0.8576715 -0.21092826 1.7720001
-0.86232442 -0.20472449 1.7720001
-0.8576715 -0.20627543 1.7720001
-0.86309981 -0.19464336 1.7720001
-0.85922247 -0.19541883 1.7720001
-0.86232442 -0.18611318 1.7720001
-0.85922253 -0.18611318 1.7720001
-0.86232442 -0.1747396 1.7720001
-0.85860205 -0.17556678 1.7720002
-0.86232442 -0.16439997 1.7720001
-0.85922247 -0.16595091 1.7720001
-0.85612059 -0.15509431 1.7720001
-0.84578103 -0.13441508 1.7720001
-0.86232436 -0.1116679 1.7720001
-0.86232442 -0.10546413 1.7720001
-0.85700685 -0.10590728 1.7720003
-0.86309981 -0.095383003 1.7720001
-0.85922253 -0.096158475 1.7720001
-0.86335826 -0.086335838 1.7720002
-0.85922247 -0.085301876 1.7720001
-0.86232442 -0.07444527 1.7720001
-0.8576715 -0.07444527 1.7720001
-0.86232436 -0.065139614 1.7720001
-0.85844696 -0.065915085 1.7720001
-0.86232442 -0.055833951 1.7720001
-0.85922253 -0.055833951 1.7720001
-0.86232436 -0.04032452 1.7720001
-0.85700685 -0.046085168 1.7720003
-0.85844696 -0.033345278 1.7720001
-0.8576715 -0.02481509 1.7720002
-0.8576715 -0.015509432 1.7720002
-0.8576715 -0.0062037734 1.7720002
-0.85745001 0.005317519 1.7720003
-0.85612059 0.015509432 1.7720001
-0.85612059 0.02481509 1.7720001
-0.85818851 0.03412075 1.7720001
-0.8576715 0.044977352 1.7720001
-0.8576715 0.055833951 1.7720001
-0.85612059 0.065139614 1.7720001
-0.85612059 0.07444527 1.7720001
-0.85736132 0.085612066 1.7720002
-0.85798168 0.096158475 1.7720002
-0.85736132 0.10484376 1.7720002
-0.85508668 0.1147698 1.7720001
-0.8530187 0.12252451 1.7720001
-0.84991682 0.12407545 1.7720001
-0.86670411 -0.74199849 1.7810001
-0.86436588 -0.7349838 1.7810001
-0.86046886 -0.72537106 1.7810001
-0.85735118 -0.72329271 1.7810001
-0.85735118 -0.71393979 1.7810001
-0.86046886 -0.69211626 1.7810001
-0.86046886 -0.68588102 1.7810001
-0.85735118 -0.68588096 1.7810001
-0.86202765 -0.6749692 1.7810001
-0.86202765 -0.66405749 1.7810001
-0.86233944 -0.65470451 1.7810001
-0.86202765 -0.64535165 1.7810001
-0.86233944 -0.63662225 1.7810001
-0.86150807 -0.6256066 1.7810001
-0.86202765 -0.6141752 1.7810001
-0.86046886 -0.60482234 1.7810001
-0.86046886 -0.5970282 1.7810001
-0.86046886 -0.58767527 1.7810001
-0.86358654 -0.5746851 1.7810001
-0.86358649 -0.56429297 1.7810001
-0.86280704 -0.55494004 1.7810001
-0.86358654 -0.54558712 1.7810001
-0.86254728 -0.53623426 1.7810001
-0.86202765 -0.52376366 1.7810001
-0.86358654 -0.51441073 1.7810001
-0.86358654 -0.50505781 1.7810001
-0.86202765 -0.49570489 1.7810001
-0.8628071 -0.48479313 1.7810001
-0.86592472 -0.47310197 1.7810001
-0.86358643 -0.46530789 1.7810001
-0.86046886 -0.45673436 1.7810001
-0.85735118 -0.4520579 1.7810001
-0.86046886 -0.44738144 1.7810001
-0.86358649 -0.43023443 1.7810001
-0.86436588 -0.42477855 1.7810001
-0.86046886 -0.41464624 1.7810001
-0.86254728 -0.40529332 1.7810001
-0.86046886 -0.39594039 1.7810001
-0.86046886 -0.38502863 1.7810001
-0.85735118 -0.38035217 1.7810001
-0.86046886 -0.3741169 1.7810001
-0.86046886 -0.36476398 1.7810001
-0.86046886 -0.35696986 1.7810001
-0.85735118 -0.35541105 1.7810001
-0.86046886 -0.34449929 1.7810001
-0.85735118 -0.34605813 1.7810001
-0.86233944 -0.33545813 1.7810001
-0.86514533 -0.32579345 1.7810001
-0.86670417 -0.31488174 1.7810001
-0.86436588 -0.30786702 1.7810001
-0.86358654 -0.29617587 1.7810001
-0.86462569 -0.28578374 1.7810001
-0.86592472 -0.27435237 1.7810001
-0.86722374 -0.26396024 1.7810001
-0.8629629 -0.25627005 1.7810001
-0.85735118 -0.25252891 1.7810001
-0.86046886 -0.24473479 1.7810001
-0.85735118 -0.24421519 1.7810001
-0.86046886 -0.23382306 1.7810001
-0.85735118 -0.2369407 1.7810001
-0.86046886 -0.22758777 1.7810001
-0.86254728 -0.21615642 1.7810001
-0.86358649 -0.20264664 1.7810001
-0.86150807 -0.19537215 1.7810001
-0.86046886 -0.18394081 1.7810001
-0.86046886 -0.17302907 1.7810001
-0.86150807 -0.16523497 1.7810001
-0.86046886 -0.15899968 1.7810001
-0.84799832 -0.13405855 1.7810001
-0.85501295 -0.1067792 1.7810001
-0.86046886 -0.095088035 1.7810001
-0.85735118 -0.095088042 1.7810001
-0.86046886 -0.084176302 1.7810001
-0.85735118 -0.082617477 1.7810001
-0.86202765 -0.07482338 1.7810001
-0.85735118 -0.076382197 1.7810001
-0.86046886 -0.063911632 1.7810001
-0.85735118 -0.065470457 1.7810001
-0.86046886 -0.056117535 1.7810001
-0.85735118 -0.056117535 1.7810001
-0.86046886 -0.044686183 1.7810001
-0.85735118 -0.042088151 1.7810001
-0.86046886 -0.035852868 1.7810001
-0.85735118 -0.034294046 1.7810001
-0.85735118 -0.024941128 1.7810001
-0.85735118 0.0046764612 1.7810001
-0.85735118 0.015588204 1.7810001
-0.85735118 0.024941128 1.7810001
-0.86046886 0.035852868 1.7810001
-0.85735118 0.034294046 1.7810001
-0.86046886 0.042088151 1.7810001
-0.8567276 0.045517556 1.7810001
-0.86046886 0.054558713 1.7810001
-0.85735118 0.059235174 1.7810001
-0.85735118 0.065470457 1.7810001
-0.85735118 0.07482338 1.7810001
-0.85735118 0.084176302 1.7810001
-0.86046886 0.093529224 1.7810001
-0.85735118 0.09664686 1.7810001
-0.85579246 0.10599979 1.7810001
-0.85631198 0.11535271 1.7810001
-0.85423356 0.12158799 1.7810001
-0.86638379 -0.74574804 1.7900002
-0.8640337 -0.73713124 1.7900001
-0.85855031 -0.73164779 1.7900001
-0.85855031 -0.72381425 1.7900002
-0.86168367 -0.7112807 1.7900001
-0.85855031 -0.71441412 1.7900002
-0.86168373 -0.70501393 1.7900002
-0.85855031 -0.70188051 1.7900001
-0.86168373 -0.69561374 1.7900002
-0.85855031 -0.69248033 1.7900001
-0.86168367 -0.68464684 1.7900001
-0.85855031 -0.68621361 1.7900002
-0.86293697 -0.67618674 1.7900002
-0.86377263 -0.66427982 1.7900002
-0.86246699 -0.65566301 1.7900001
-0.86168373 -0.64547944 1.7900002
-0.86246699 -0.63607925 1.7900001
-0.86302668 -0.62444091 1.7900002
-0.86246705 -0.61492878 1.7900001
-0.86168373 -0.60474527 1.7900002
-0.86246699 -0.59534508 1.7900001
-0.86377263 -0.58594489 1.7900002
-0.86544383 -0.57591808 1.7900002
-0.86429489 -0.5640111 1.7900002
-0.86325037 -0.55461097 1.7900001
-0.86481708 -0.54677749 1.7900001
-0.86481708 -0.53581059 1.7900002
-0.86481708 -0.52327704 1.7900002
-0.86481708 -0.5138768 1.7900002
-0.8640337 -0.50369328 1.7900001
-0.86168373 -0.49507648 1.7900002
-0.86481708 -0.48567626 1.7900002
-0.86481708 -0.47470939 1.7900001
-0.85855031 -0.47470936 1.7900001
-0.86272812 -0.46374249 1.7900002
-0.85855031 -0.46374249 1.7900001
-0.86168367 -0.45434231 1.7900001
-0.86377263 -0.44494212 1.7900002
-0.8640337 -0.43632531 1.7900001
-0.86403376 -0.42535838 1.7900001
-0.86231035 -0.41423488 1.7900002
-0.86246699 -0.40499133 1.7900001
-0.86168373 -0.39480782 1.7900002
-0.86168367 -0.38697433 1.7900001
-0.85855031 -0.38227421 1.7900001
-0.86168373 -0.37600744 1.7900002
-0.86168373 -0.36660728 1.7900002
-0.85855031 -0.36190712 1.7900001
-0.85776699 -0.35329029 1.7900001
-0.86168367 -0.34154007 1.7900001
-0.85855031 -0.34154007 1.7900001
-0.86325037 -0.33683997 1.7900001
-0.86544371 -0.32399309 1.7900002
-0.86520875 -0.3152979 1.7900001
-0.8653394 -0.30498382 1.7900002
-0.86356372 -0.29516584 1.7900002
-0.86607045 -0.28451228 1.7900002
-0.86481714 -0.27529114 1.7900002
-0.86419052 -0.26539859 1.7900002
-0.86168367 -0.2569384 1.7900001
-0.86168367 -0.24753822 1.7900001
-0.85855031 -0.24127144 1.7900001
-0.86168367 -0.23343796 1.7900001
-0.85855031 -0.23813803 1.7900001
-0.86481708 -0.22403777 1.7900001
-0.86325037 -0.21777096 1.7900001
-0.86272812 -0.20471516 1.7900002
-0.86168373 -0.19427049 1.7900002
-0.86168367 -0.18800372 1.7900001
-0.86168367 -0.17233674 1.7900001
-0.86325037 -0.16606995 1.7900001
-0.86168367 -0.15823646 1.7900001
-0.85541689 -0.15353636 1.7900001
-0.84915012 -0.134736 1.7900002
-0.85646129 -0.10444652 1.7900002
-0.85855031 -0.094001859 1.7900002
-0.86168367 -0.087735064 1.7900001
-0.85855031 -0.083034977 1.7900001
-0.86168367 -0.072068088 1.7900001
-0.85855031 -0.075201489 1.7900001
-0.85855031 -0.062667906 1.7900001
-0.86168367 -0.056401115 1.7900001
-0.85855031 -0.050134324 1.7900001
-0.85855031 -0.043867536 1.7900002
-0.85855031 -0.034467347 1.7900002
-0.85855031 -0.025067162 1.7900002
-0.86168373 -0.015666977 1.7900002
-0.86168373 -0.0062667904 1.7900002
-0.86168367 0.0047000926 1.7900001
-0.85855031 0.0052223257 1.7900002
-0.85855031 0.015666977 1.7900002
-0.8575058 0.026111629 1.7900002
-0.85776693 0.035250694 1.7900001
-0.85667032 0.043240856 1.7900002
-0.86168367 0.054834418 1.7900001
-0.85855031 0.054834414 1.7900001
-0.85855031 0.0658013 1.7900002
-0.86168367 0.075201482 1.7900001
-0.85855031 0.075201482 1.7900002
-0.85855031 0.084601671 1.7900002
-0.86168367 0.094001859 1.7900001
-0.85855031 0.095568553 1.7900001
-0.85620022 0.10496874 1.7900001
-0.85855031 0.11436893 1.7900001
-0.86553854 -0.75358903 1.8078752
-0.86391699 -0.74483508 1.8045002
-0.8549968 -0.74416387 1.8090001
-0.86076295 -0.7344119 1.8045001
-0.85658014 -0.73149729 1.8090001
-0.86076295 -0.72493553 1.8045001
-0.85816348 -0.72674727 1.8090001
-0.861099 -0.71486568 1.8030002
-0.86140883 -0.70593745 1.8033751
-0.85816348 -0.70933068 1.8090001
-0.86104995 -0.69543529 1.8040003
-0.85816354 -0.69349742 1.8090003
-0.86245215 -0.68350732 1.8040003
-0.85816354 -0.68399751 1.8090003
-0.8627193 -0.67409784 1.8040911
-0.85816354 -0.67449749 1.8090003
-0.86328012 -0.66562945 1.8050001
-0.86245388 -0.65578634 1.804
-0.86392176 -0.64596605 1.8045001
-0.86383963 -0.63468355 1.8038573
-0.86392176 -0.62385464 1.8045001
-0.86309916 -0.6143716 1.805143
-0.86277163 -0.60520291 1.8054001
-0.8618027 -0.59505534 1.8033751
-0.86365891 -0.58628941 1.8024546
-0.86519861 -0.57565081 1.8032728
-0.86366963 -0.56419033 1.8056251
-0.86401504 -0.55380225 1.80525
-0.86427754 -0.54432195 1.80525
-0.86671144 -0.53582639 1.805143
-0.86621928 -0.52584326 1.8060002
-0.8646242 -0.51481849 1.8032728
-0.86204046 -0.50477135 1.8032728
-0.86254162 -0.49441406 1.8036002
-0.86279672 -0.4853231 1.8024546
-0.85816348 -0.4844982 1.8090001
-0.86162418 -0.4765763 1.8030002
-0.86377794 -0.46602014 1.8033751
-0.8632738 -0.4547517 1.8056251
-0.86389691 -0.44508412 1.8062309
-0.86427754 -0.43450785 1.8052499
-0.86340183 -0.42506275 1.8054001
-0.86305785 -0.41519415 1.806
-0.8630867 -0.40515539 1.8054001
-0.86305785 -0.3951754 1.8060002
-0.86326343 -0.38578275 1.8064287
-0.86303157 -0.37516913 1.8065455
-0.86200494 -0.36513945 1.8060001
-0.85816348 -0.36099866 1.8090001
-0.86150974 -0.35458344 1.8054001
-0.85760415 -0.35694185 1.8045001
-0.86210203 -0.3449133 1.804
-0.86381483 -0.3341282 1.8019285
-0.86290121 -0.32513285 1.8032728
-0.86204046 -0.3153736 1.8032726
-0.86290127 -0.30504155 1.8032728
-0.86211151 -0.29536381 1.8027
-0.86294329 -0.28512499 1.8018
-0.85816354 -0.28499895 1.8090003
-0.86210203 -0.27473751 1.8040003
-0.85816348 -0.27866563 1.8090001
-0.8616609 -0.26540232 1.8022501
-0.86219853 -0.25570142 1.8033751
-0.8614561 -0.2464004 1.8000001
-0.85760415 -0.24480131 1.8045001
-0.8619374 -0.23377103 1.8024546
-0.85779065 -0.23709999 1.8060001
-0.86284256 -0.22399357 1.8022499
-0.86315405 -0.21508746 1.8040003
-0.8653565 -0.20494132 1.805143
-0.86219853 -0.1961199 1.8033751
-0.85704482 -0.19220491 1.8000001
-0.86375237 -0.18486202 1.8052502
-0.85673511 -0.18757311 1.8060001
-0.8629384 -0.17490254 1.803
-0.86368328 -0.16458011 1.8049091
-0.86057395 -0.15675728 1.8030002
-0.85681641 -0.15478009 1.8045001
-0.85074306 -0.1354887 1.8000001
-0.85074306 -0.1291869 1.8000001
-0.84786582 -0.12484655 1.8056251
-0.86019576 -0.1008288 1.8000001
-0.85616255 -0.10390881 1.8056251
-0.86064953 -0.094082728 1.8036002
-0.85760415 -0.097922102 1.8045001
-0.86236095 -0.085830532 1.8064289
-0.86203456 -0.076233782 1.8038573
-0.85816348 -0.077583045 1.8090001
-0.86235589 -0.066037618 1.8060002
-0.85816348 -0.066499755 1.8090001
-0.86191142 -0.055249464 1.8036002
-0.85816348 -0.052249804 1.8090001
-0.86076295 -0.044222884 1.8045001
-0.85816348 -0.044333167 1.8090001
-0.86047935 -0.03549489 1.8022501
-0.85760415 -0.033167165 1.8045001
-0.86019582 -0.025207203 1.8000001
-0.85760415 -0.02527022 1.8045001
-0.86210203 -0.01578776 1.8040003
-0.85816354 -0.015833274 1.8090003
-0.86257994 -0.0063210558 1.8050001
-0.85816348 -0.0047499822 1.8090001
-0.86101496 0.0039445334 1.8033751
-0.85667306 0.0082238493 1.8072001
-0.86019582 0.015754502 1.8000001
-0.85673499 0.015807016 1.8060002
-0.86124611 0.024156902 1.8000001
-0.85695225 0.024890143 1.8056251
-0.86019576 0.033084452 1.8000001
-0.85760415 0.03474655 1.8045001
-0.85760415 0.044222888 1.8045001
-0.86068189 0.054580349 1.8038573
-0.85816354 0.053833134 1.8090003
-0.86084396 0.065453202 1.805143
-0.85816354 0.066499755 1.8090003
-0.86076295 0.075810656 1.8045001
-0.85816348 0.074416384 1.8090001
-0.86076295 0.085286997 1.8045001
-0.85737181 0.086291343 1.8090001
-0.86113203 0.094279438 1.8038573
-0.85816354 0.094999656 1.8090003
-0.86095202 0.10327601 1.8060001
-0.85760415 0.10423966 1.8045001
-0.86076295 0.11529144 1.8045001
-0.862234 0.1261148 1.8067501
-0.85626346 0.12603286 1.8090003
-0.86449683 0.13299951 1.8090003
-0.85658014 0.13299951 1.8090001
-0.86449933 -0.76101416 1.8190001
-0.86370337 -0.75464582 1.8190001
-0.86290729 -0.74509335 1.8190001
-0.85972315 -0.74350131 1.8190001
-0.86290729 -0.73872507 1.8190001
-0.85972315 -0.73554087 1.8190001
