# .PCD v0.7 - Point Cloud Data file format
VERSION 0.7
FIELDS x y z
SIZE 4 4 4
TYPE F F F
COUNT 1 1 1
WIDTH 781
HEIGHT 1
VIEWPOINT 0 0 0 1 0 0 0
POINTS 781
DATA ascii
-0.73785162 0.4581514 1.4460001
-0.83574599 -0.17568372 1.5560001
-0.83722574 -0.17237 1.5630001
-0.74250966 0.56100732 1.5710001
-0.86808705 -0.56432623 1.5920002
-0.87485975 -0.67231983 1.6070001
-0.87511551 -0.66567087 1.6070002
-0.87485969 -0.65544152 1.6070002
-0.87425643 -0.64572442 1.6063639
-0.86853033 -0.64348608 1.6070001
-0.87246847 -0.63380921 1.6021003
-0.86787391 -0.63419223 1.6062225
-0.87239176 -0.62416506 1.6010002
-0.86793232 -0.62416798 1.6052502
-0.87263268 -0.61495912 1.602917
-0.86640865 -0.60510767 1.6050911
-0.8651374 -0.59449142 1.6038502
-0.86650479 -0.58544695 1.6056002
-0.87356085 -0.67142624 1.6150001
-0.87450325 -0.66435862 1.6150001
-0.87194544 -0.65506971 1.6150001
-0.8707338 -0.64739627 1.6150001
-0.8707338 -0.62195271 1.6150001
-0.87521768 -0.67433643 1.6220001
-0.8745079 -0.66510868 1.6220001
-0.87166858 -0.65446126 1.6220001
-0.86882925 -0.65020227 1.6220001
-0.86712569 -0.64509147 1.6220001
-0.87166858 -0.63032711 1.6220001
-0.86788273 -0.6355325 1.6220001
-0.87166858 -0.62464845 1.6220001
-0.87644231 -0.68321794 1.6353335
-0.87544686 -0.67518121 1.6343639
-0.86879778 -0.67238641 1.6380001
-0.87328774 -0.66532749 1.6330003
-0.86845028 -0.66440588 1.6360002
-0.87168783 -0.65626252 1.6300001
-0.87026119 -0.63343596 1.6300001
-0.87121236 -0.6267783 1.6300001
-0.83806598 -0.16160443 1.6340001
-0.87395036 -0.68533838 1.6450002
-0.86819124 -0.68677813 1.6450001
-0.87467021 -0.67741948 1.6450001
-0.86905509 -0.67497188 1.6450001
-0.86963099 -0.66662109 1.6450001
-0.8719312 -0.6848132 1.6530002
-0.87096661 -0.67516798 1.6530002
-0.87324351 -0.67262042 1.6610001
-0.87300122 -0.66656291 1.6610001
-0.74771333 0.76371288 1.8280001
-0.75502104 0.64884627 1.8380001
-0.74965864 0.71587574 1.8380001
-0.74965864 0.72070187 1.8380001
-0.74965864 0.73518026 1.8380001
-0.7496587 0.74536872 1.8380001
-0.74483252 0.76574576 1.8380002
-0.74483252 0.77218062 1.8380001
-0.75697225 0.64698488 1.848
-0.75333297 0.70480919 1.8479998
-0.75265902 0.71384001 1.8479999
-0.75131112 0.72543174 1.848
-0.74726748 0.72300553 1.848
-0.75179636 0.73368084 1.8479999
-0.75131112 0.74484128 1.848
-0.75050247 0.75373739 1.848
-0.75050241 0.76020724 1.848
-0.74511093 0.76452053 1.848
-0.74079764 0.77476442 1.848
-0.73756272 0.77314693 1.848
-0.75456357 0.65156996 1.8580002
-0.74805874 0.65699071 1.858
-0.75293732 0.66430867 1.858
-0.74805874 0.66024315 1.858
-0.75239533 0.70577711 1.8580002
-0.75131118 0.71553445 1.8580002
-0.75131112 0.72203928 1.858
-0.74805874 0.72691792 1.858
-0.75131118 0.73504901 1.8580002
-0.74805874 0.73179656 1.858
-0.75131118 0.74480629 1.8580002
-0.75131118 0.75456357 1.8580002
-0.74805874 0.75781602 1.858
-0.75131112 0.7626946 1.858
-0.74697465 0.76432085 1.8580002
-0.74318004 0.77245194 1.858
-0.75453728 0.65398681 1.868
-0.74881488 0.65725678 1.868
-0.75371981 0.66706657 1.868
-0.74881488 0.66216165 1.868
-0.74881494 0.6736064 1.868
-0.74881488 0.68178129 1.868
-0.75339282 0.69714999 1.868
-0.74881494 0.69649601 1.868
-0.75339282 0.70565176 1.868
-0.75208491 0.71611565 1.868
-0.74881494 0.71611565 1.868
-0.75208485 0.72429037 1.868
-0.74881494 0.72592539 1.868
-0.75208485 0.73900509 1.868
-0.74881494 0.73573518 1.868
-0.75208491 0.74554503 1.868
-0.74881494 0.74554503 1.868
-0.75208491 0.75535476 1.868
-0.74881494 0.75535476 1.868
-0.74750692 0.7658186 1.868
-0.74554497 0.77170444 1.868
-0.7570504 0.64386857 1.8780003
-0.75564152 0.65326118 1.8780003
-0.74953622 0.66570652 1.8780001
-0.75282365 0.67063767 1.8780001
-0.74953622 0.67556882 1.8780001
-0.74953622 0.68378747 1.8780001
-0.75282365 0.69200599 1.8780001
-0.74953622 0.69364971 1.8780001
-0.75282365 0.70679951 1.8780001
-0.74953622 0.70351207 1.8780001
-0.75282365 0.71173066 1.8780001
-0.74953622 0.71501809 1.8780001
-0.74953622 0.72652411 1.8780001
-0.74953622 0.73638648 1.8780001
-0.74953622 0.74624884 1.8780001
-0.74871439 0.75693297 1.8780001
-0.7478925 0.76597339 1.8780001
-0.74624878 0.77747941 1.8780001
-0.74624884 0.78569812 1.8780001
-0.75407815 0.63344771 1.8880002
-0.75683224 0.64776909 1.8880001
-0.75683224 0.65107405 1.8880001
-0.75187486 0.6659463 1.8880001
-0.75132406 0.67420864 1.8880002
-0.75022238 0.68577594 1.8880001
-0.75022238 0.69073337 1.8880001
-0.75022238 0.70560563 1.8880001
-0.74691743 0.70725811 1.8880001
-0.75022238 0.71386802 1.8880002
-0.74691743 0.71056306 1.8880001
-0.75022238 0.7237829 1.8880002
-0.75022238 0.73369765 1.8880002
-0.75022238 0.74361253 1.8880002
-0.75022238 0.75352734 1.8880002
-0.75022238 0.76344216 1.8880001
-0.74691743 0.76509464 1.8880001
-0.75022238 0.77666193 1.8880001
-0.74691743 0.77500945 1.8880001
-0.74691743 0.78492427 1.8880001
-0.7620728 0.57508653 1.899
-0.75791758 0.57508659 1.899
-0.75791758 0.58505917 1.899
-0.7565878 0.59569663 1.899
-0.76124179 0.60500443 1.899
-0.75791758 0.60500443 1.899
-0.76124173 0.61830115 1.899
-0.75570142 0.61497694 1.899
-0.75126922 0.62494957 1.899
-0.74794495 0.62661159 1.899
-0.75293124 0.63824636 1.899
-0.74794501 0.63492221 1.899
-0.75293124 0.64157057 1.899
-0.75791758 0.65486735 1.899
-0.75680947 0.66483998 1.899
-0.75210017 0.67564362 1.899
-0.75237721 0.68589324 1.899
-0.75210023 0.69558883 1.899
-0.75259882 0.7040655 1.899
-0.75126916 0.71802711 1.899
-0.75126922 0.72467554 1.899
-0.75126922 0.73464817 1.899
-0.75126922 0.74462074 1.899
-0.75126922 0.75459331 1.899
-0.74794495 0.75625539 1.899
-0.75126916 0.76290381 1.899
-0.74711394 0.76539701 1.899
-0.74794501 0.77453852 1.899
-0.75126916 0.79448372 1.899
-0.76190871 0.55472302 1.9090002
-0.75856698 0.55305207 1.909
-0.76190865 0.56140637 1.909
-0.75773156 0.56558347 1.909
-0.76190865 0.57143152 1.909
-0.75856704 0.57477319 1.9090002
-0.75689614 0.58479834 1.9090002
-0.75656193 0.59415507 1.909
-0.75656193 0.60551685 1.909
-0.75606066 0.61403823 1.909
-0.75188351 0.62322795 1.909
-0.7552253 0.64717674 1.9090002
-0.75745314 0.65274632 1.9090002
-0.75856698 0.66499925 1.909
-0.7529974 0.67502439 1.9090002
-0.75271893 0.68504941 1.909
-0.75188351 0.69507456 1.9090002
-0.75188351 0.7050997 1.9090002
-0.75188351 0.71512479 1.9090002
-0.75188351 0.72514987 1.9090002
-0.74854183 0.72347903 1.909
-0.75188351 0.73517501 1.9090002
-0.75188351 0.75522524 1.909
-0.74854183 0.76692116 1.909
-0.74854183 0.77694631 1.909
-0.75188351 0.78697145 1.909
-0.74854183 0.78362972 1.909
-0.75188351 0.79532576 1.9090002
-0.75188351 0.80200911 1.909
-0.76293796 0.54447556 1.9200001
-0.7578966 0.55455852 1.9200001
-0.76293796 0.56128037 1.9200001
-0.7578966 0.56464136 1.9200001
-0.75756043 0.57539642 1.9200001
-0.7570563 0.58396685 1.9200001
-0.75621605 0.59489 1.9200001
-0.7553758 0.60581309 1.9200001
-0.75453556 0.6150558 1.9200001
-0.75453556 0.62345815 1.9200001
-0.74949414 0.62513858 1.9200001
-0.75285506 0.63522148 1.9200001
-0.75285506 0.64530438 1.9200001
-0.75621605 0.65538722 1.9200001
-0.76293796 0.66547012 1.9200001
-0.75957698 0.66547012 1.9200001
-0.75621605 0.67471278 1.9200001
-0.75285506 0.68563592 1.9200001
-0.75285506 0.69571877 1.9200001
-0.75285506 0.7074821 1.9200001
-0.75285506 0.71588457 1.9200001
-0.75285506 0.72260642 1.9200001
-0.74949414 0.72932833 1.9200001
-0.75285506 0.73605031 1.9200001
-0.75509572 0.74613321 1.9200001
-0.75621605 0.75453556 1.9200001
-0.75285506 0.7646184 1.9200001
-0.74949414 0.76965988 1.9200001
-0.74814975 0.77705401 1.9200001
-0.74781364 0.78646469 1.9200001
-0.75285506 0.79654759 1.9200001
-0.74837387 0.79430693 1.9200001
-0.75285506 0.80495 1.9200001
-0.84843415 -0.11323723 1.9310001
-0.84449053 -0.10478669 1.9310001
-0.83829349 -0.098026253 1.9310001
-0.76054853 0.54590487 1.9310001
-0.75716829 0.54252464 1.9310001
-0.75716829 0.55435538 1.9310001
-0.75716829 0.56449604 1.9310001
-0.75632322 0.5746367 1.9310001
-0.75716829 0.58139712 1.9310001
-0.75716829 0.59491801 1.9310001
-0.75632322 0.60505861 1.9310001
-0.75378817 0.61519927 1.9310001
-0.75491488 0.62421322 1.9310001
-0.75463319 0.63463551 1.9310001
-0.75294304 0.64646626 1.9310001
-0.75491488 0.65576184 1.9310001
-0.76054853 0.66759264 1.9310001
-0.75716829 0.66421235 1.9310001
-0.76054853 0.67266291 1.9310001
-0.75716829 0.67942333 1.9310001
-0.75378811 0.68956399 1.9310001
-0.75378817 0.69632447 1.9310001
-0.75463319 0.70646507 1.9310001
-0.75243604 0.71728176 1.9310001
-0.75378811 0.72505629 1.9310001
-0.75176001 0.73350686 1.9310001
-0.75378817 0.74364746 1.9310001
-0.75716829 0.75378811 1.9310001
-0.75604153 0.76392877 1.9310001
-0.75153464 0.77406949 1.9310001
-0.7470277 0.79435068 1.9310001
-0.75176001 0.80516738 1.9310001
-0.75209796 0.81125176 1.9310001
-0.8494302 -0.11212479 1.9410001
-0.84376734 -0.10532936 1.9410002
-0.75769174 0.54533422 1.9410001
-0.76108944 0.55043077 1.9410001
-0.75769174 0.55382848 1.9410002
-0.75769174 0.56402171 1.9410002
-0.75769174 0.57251596 1.9410001
-0.76108944 0.58780569 1.9410001
-0.75769174 0.58440799 1.9410002
-0.76108944 0.59120345 1.9410001
-0.75769174 0.59460115 1.9410002
-0.75769174 0.60309547 1.9410001
-0.75769174 0.61158973 1.9410001
-0.75429404 0.6217829 1.9410001
-0.75429404 0.63537383 1.9410001
-0.7542941 0.64556694 1.9410002
-0.75429404 0.65745902 1.9410001
-0.75684226 0.66510385 1.9410001
-0.7610895 0.67614645 1.9410002
-0.75769174 0.6744476 1.9410001
-0.75769174 0.68633962 1.9410002
-0.7542941 0.69653285 1.9410002
-0.75429404 0.7050271 1.9410001
-0.75429404 0.71522021 1.9410001
-0.75202894 0.72371453 1.9410002
-0.75202894 0.7339077 1.9410002
-0.75429404 0.74579972 1.9410001
-0.75565308 0.75497359 1.9410002
-0.75684237 0.76363778 1.9410001
-0.75429404 0.77298152 1.9410001
-0.75089633 0.78487349 1.9410002
-0.75089633 0.7933678 1.9410001
-0.75089633 0.80356097 1.9410001
-0.75856876 0.55355024 1.9520001
-0.75856876 0.56380117 1.9520001
-0.75856876 0.57405204 1.9520001
-0.75856876 0.58430302 1.9520001
-0.75856876 0.59455395 1.9520001
-0.75856876 0.60480487 1.9520001
-0.75856876 0.6150558 1.9520001
-0.75856876 0.62530673 1.9520001
-0.75856876 0.63555765 1.9520001
-0.75515187 0.64580858 1.9520001
-0.75515187 0.6560595 1.9520001
-0.75515175 0.66545618 1.9520001
-0.75856876 0.67656136 1.9520001
-0.76198572 0.68339527 1.9520001
-0.75856876 0.68510377 1.9520001
-0.75856876 0.69193769 1.9520001
-0.75378501 0.70321381 1.952
-0.756006 0.71414804 1.9520001
-0.75258905 0.72354478 1.9520001
-0.75310159 0.73396653 1.952
-0.75515181 0.74660933 1.9520001
-0.75515187 0.75515175 1.9520001
-0.756006 0.76625693 1.9520001
-0.75600606 0.77479941 1.9520001
-0.7534433 0.78590459 1.9520001
-0.75173485 0.79615557 1.9520001
-0.75173485 0.8064065 1.9520001
-0.75515181 0.81494892 1.9520001
-0.75515181 0.82007432 1.9520001
-0.76323211 0.5500772 1.9640001
-0.75807512 0.55523419 1.9640001
-0.75733846 0.56333804 1.9640001
-0.75841898 0.57345545 1.9640001
-0.75807518 0.58445704 1.9640001
-0.75893462 0.59391147 1.9640001
-0.75979412 0.6050849 1.9640001
-0.75979412 0.61539888 1.9640001
-0.75979412 0.62571281 1.9640001
-0.75979412 0.63602674 1.9640001
-0.75807512 0.64634073 1.9640001
-0.75635612 0.65493566 1.9640001
-0.7552101 0.66353059 1.9640001
-0.75692916 0.67384458 1.9640001
-0.75807518 0.6841585 1.9640001
-0.75807518 0.69447243 1.9640001
-0.75635612 0.7024945 1.9640001
-0.75635612 0.71510041 1.9640001
-0.75635612 0.72197628 1.9640001
-0.7552101 0.74833417 1.9640001
-0.74948019 0.74604219 1.9640001
-0.75498098 0.75635618 1.9640001
-0.75463712 0.76495105 1.9640001
-0.75635612 0.7735461 1.9640001
-0.75635612 0.78385997 1.9640001
-0.75635612 0.79073596 1.9640001
-0.75291812 0.80448788 1.9640001
-0.75406408 0.81480187 1.9640001
-0.75635612 0.8233968 1.9640001
-0.85278547 -0.10371714 1.9750001
-0.84471846 -0.094497845 1.9750001
-0.84702331 -0.089888185 1.9750001
-0.76750684 0.54970086 1.9750001
-0.762321 0.55315804 1.9750001
-0.75713509 0.55661529 1.9750001
-0.7554065 0.56439412 1.9750001
-0.75575221 0.57321006 1.9750003
-0.76059234 0.58081597 1.9750001
-0.75506079 0.58565611 1.9750003
-0.76059234 0.59810215 1.9750001
-0.75713509 0.5946449 1.9750001
-0.76059234 0.60501665 1.9750001
-0.75713509 0.60674524 1.9750001
-0.76059234 0.61538833 1.9750001
-0.76059234 0.62576008 1.9750001
-0.76059234 0.63613176 1.9750001
-0.76059234 0.64996076 1.9750001
-0.75713509 0.66378969 1.9750001
-0.7548303 0.67531383 1.9750001
-0.75627077 0.68366879 1.9750001
-0.75713509 0.6949048 1.9750001
-0.75713509 0.7018193 1.9750001
-0.75598276 0.7133435 1.9750001
-0.75713509 0.72602004 1.9750001
-0.75713509 0.73639172 1.9750001
-0.75598276 0.74561107 1.9750001
-0.7554065 0.75194931 1.9750001
-0.75454217 0.76318526 1.9750001
-0.75598276 0.77442139 1.9750001
-0.75713509 0.78479302 1.9750001
-0.75713509 0.79516476 1.9750001
-0.7554065 0.80553645 1.9750001
-0.75367796 0.81590813 1.9750001
-0.75575227 0.82697135 1.9750003
-0.85174084 -0.097341813 1.9860001
-0.84826434 -0.090388827 1.9860001
-0.75787556 0.55971545 1.9860001
-0.75787556 0.56319189 1.9860001
-0.75324029 0.57593906 1.9860001
-0.75539237 0.58454746 1.9860002
-0.761352 0.60490984 1.9860001
-0.75700641 0.60404068 1.9860001
-0.761352 0.61707759 1.9860001
-0.75787562 0.61533928 1.9860001
-0.761352 0.62576878 1.9860001
-0.75787556 0.62229228 1.9860001
-0.761352 0.63272178 1.9860001
-0.76309025 0.64488947 1.9860001
-0.7625109 0.65358078 1.9860001
-0.761352 0.66053373 1.9860001
-0.75787562 0.66401023 1.9860001
-0.75671673 0.67443967 1.9860001
-0.75613731 0.68660742 1.9860001
-0.75787562 0.69529867 1.9860001
-0.761352 0.70920461 1.9860001
-0.75787562 0.70572817 1.9860001
-0.75787556 0.71615762 1.9860001
-0.761352 0.72311062 1.9860001
-0.75787556 0.72484887 1.9860001
-0.75787562 0.73354006 1.9860001
-0.75787562 0.74396962 1.9860001
-0.75439906 0.75266081 1.9860001
-0.75613731 0.7648285 1.9860001
-0.75555789 0.775258 1.9860001
-0.75648499 0.78638285 1.9860001
-0.75539237 0.79562038 1.9860002
-0.75613731 0.80480826 1.9860001
-0.75526816 0.8126303 1.9860001
-0.75555789 0.82392895 1.9860001
-0.75439906 0.83435839 1.9860001
-0.83939981 -0.090934984 1.9980001
-0.76551515 0.55566525 1.9980001
-0.75895733 0.55785114 1.9980001
-0.75895733 0.56484616 1.9980001
-0.75685883 0.5728904 1.9980001
-0.75545985 0.58583117 1.9980001
-0.75895733 0.61555994 1.9980001
-0.76245487 0.62954986 1.9980001
-0.75895733 0.62430364 1.9980001
-0.76245487 0.63479614 1.9980001
-0.76385391 0.64284039 1.9980001
-0.76385385 0.65333289 1.9980001
-0.76245487 0.66102737 1.9980001
-0.75895733 0.66627359 1.9980001
-0.75895733 0.67326862 1.9980001
-0.75779152 0.68550986 1.9980001
-0.75808299 0.69687676 1.9980001
-0.75895733 0.70649481 1.9980001
-0.75895733 0.71523857 1.9980001
-0.75755835 0.72328287 1.9980001
-0.75895733 0.73447484 1.9980001
-0.75895733 0.74496734 1.9980001
-0.75720859 0.75545985 1.9980001
-0.75895733 0.76595235 1.9980001
-0.7554599 0.77644485 1.9980001
-0.75720859 0.78518862 1.9980001
-0.7537111 0.79393232 1.9980001
-0.75458544 0.80529922 1.9980001
-0.7554599 0.81491733 1.9980001
-0.75545985 0.82191235 1.9980001
-0.75720859 0.83590233 1.9980001
-0.84050441 -0.091435626 2.0090001
-0.84402114 -0.083698764 2.0090001
-0.76313579 0.54861373 2.0090001
-0.77720284 0.55916405 2.0090001
-0.76313579 0.55388892 2.0090001
-0.75961906 0.55740565 2.0090001
-0.75873983 0.56619751 2.0090001
-0.75610226 0.57674778 2.0090001
-0.75610226 0.58378136 2.0090003
-0.75610226 0.59433162 2.0090003
-0.75821233 0.61543214 2.0090001
-0.75961912 0.6259824 2.0090003
-0.76313579 0.63477421 2.0090001
-0.75961906 0.63477421 2.0090001
-0.76313579 0.64356613 2.0090003
-0.75961912 0.64356613 2.0090003
-0.76313579 0.65411639 2.0090003
-0.75961912 0.65411639 2.0090003
-0.76313579 0.66290832 2.0090001
-0.75961912 0.66466665 2.0090003
-0.75961912 0.67521691 2.0090003
-0.75786066 0.68576717 2.0090001
-0.75750899 0.69702089 2.0090001
-0.75727457 0.70569551 2.0090003
-0.75821233 0.71319789 2.0090001
-0.75698149 0.72357225 2.0090001
-0.75821233 0.73429841 2.0090001
-0.75961912 0.745552 2.0090003
-0.75873983 0.75610232 2.0090001
-0.75786066 0.76489413 2.0090001
-0.75786066 0.77368605 2.0090001
-0.75610226 0.78423637 2.0090003
-0.85260034 -0.088444017 2.0210001
-0.84316635 -0.084906265 2.0210004
-0.84198707 -0.07429298 2.0210004
-0.8384493 -0.077830739 2.0210001
-0.76061857 0.55896622 2.0210001
-0.76061857 0.56427288 2.0210001
-0.75708079 0.56957948 2.0210001
-0.76061857 0.57488614 2.0210001
-0.75708079 0.58373058 2.0210004
-0.75708079 0.59434384 2.0210004
-0.75708079 0.60141933 2.0210001
-0.76061857 0.61910814 2.0210001
-0.76061857 0.62795258 2.0210001
-0.75708079 0.62264591 2.0210001
-0.76061857 0.63502806 2.0210001
-0.75708079 0.63502806 2.0210001
-0.76061857 0.6438725 2.0210004
-0.75708079 0.6438725 2.0210004
-0.76061857 0.65448582 2.0210004
-0.75708079 0.65448582 2.0210004
-0.76061857 0.66509902 2.0210004
-0.75708079 0.66156125 2.0210001
-0.76061857 0.67571229 2.0210004
-0.76061857 0.68278784 2.0210001
-0.75708079 0.69693887 2.0210001
-0.75708079 0.70401442 2.0210004
-0.75708079 0.7128588 2.0210001
-0.76061857 0.72170323 2.0210001
-0.75708079 0.72700983 2.0210001
-0.75708079 0.73585427 2.0210004
-0.76061857 0.74469864 2.0210001
-0.76061857 0.75531197 2.0210001
-0.76061857 0.76415634 2.0210001
-0.75354308 0.76415634 2.0210001
-0.76061857 0.77300072 2.0210001
-0.84431732 -0.08630009 2.033
-0.8398689 -0.081851631 2.033
-0.8398689 -0.074734107 2.033
-0.76157606 0.56584394 2.033
-0.7580173 0.56762326 2.033
-0.76157606 0.5765202 2.033
-0.7580173 0.57296139 2.033
-0.76157606 0.58007896 2.033
-0.7580173 0.58541709 2.033
-0.7580173 0.59431404 2.033
-0.76157606 0.60854906 2.033
-0.76157606 0.61566663 2.033
-0.76157606 0.62634289 2.033
-0.7580173 0.62812233 2.033
-0.76157606 0.63346046 2.033
-0.7580173 0.63523984 2.033
-0.7580173 0.64413679 2.033
-0.7580173 0.65481305 2.033
-0.76157606 0.66904813 2.033
-0.7580173 0.66548938 2.033
-0.76157606 0.6761657 2.033
-0.7580173 0.67260689 2.033
-0.76157606 0.68684196 2.033
-0.76157606 0.69395947 2.033
-0.7580173 0.7046358 2.033
-0.7580173 0.71175331 2.033
-0.76157606 0.72420901 2.033
-0.7580173 0.73666465 2.033
-0.76157606 0.74734098 2.033
-0.7580173 0.74378222 2.033
-0.76335543 0.75267911 2.033
-0.76157606 0.76691419 2.033
-0.75445849 0.76869357 2.033
-0.76157606 0.77581114 2.033
-0.75623786 0.77403176 2.033
-0.85735559 -0.26490319 2.0450001
-0.84840614 -0.093074091 2.0450001
-0.84363317 -0.085914552 2.0450001
-0.8412466 -0.075175226 2.0450001
-0.76368493 0.56321764 2.0450001
-0.75801688 0.56649905 2.0450001
-0.76249158 0.57992321 2.0450001
-0.76249158 0.58350295 2.0450001
-0.76249158 0.60677147 2.0450001
-0.76249158 0.61572093 2.0450001
-0.75891185 0.61214113 2.0450001
-0.76249158 0.62467039 2.0450001
-0.75891185 0.63361979 2.0450001
-0.75891185 0.64435911 2.0450001
-0.75891185 0.65509844 2.0450001
-0.75891185 0.66583776 2.0450001
-0.75891185 0.67478716 2.0450001
-0.76338661 0.68463153 2.0450001
-0.76249158 0.69447589 2.0450001
-0.76249158 0.70163548 2.0450001
-0.8728289 -0.38456321 2.0570002
-0.84798348 -0.091819867 2.0570002
-0.84618306 -0.086418696 2.0570002
-0.84258235 -0.07561636 2.0570002
-0.83898151 -0.073815972 2.0570002
-0.75856417 0.5677228 2.0570002
-0.76336515 0.60853165 2.0570002
-0.76336515 0.61573321 2.0570002
-0.76336515 0.62473512 2.0570002
-0.75976437 0.62653553 2.0570002
-0.76336515 0.63013631 2.0570002
-0.75976437 0.63373709 2.0570002
-0.75976437 0.64453948 2.0570002
-0.75976437 0.6553418 2.0570002
-0.75976437 0.66614413 2.0570002
-0.75796402 0.67514604 2.0570002
-0.76336515 0.68594837 2.0570002
-0.75796402 0.68414801 2.0570002
-0.76336515 0.69495034 2.0570002
-0.88009369 -0.4020181 2.069
-0.85293031 -0.095977291 2.069
-0.84749764 -0.085111946 2.069
-0.84206498 -0.076057479 2.069
-0.84266865 -0.065192126 2.069
-0.76057482 0.5686202 2.069
-0.76178211 0.6253615 2.069
-0.76057482 0.63381231 2.069
-0.76057482 0.64467764 2.069
-0.76057482 0.65554309 2.069
-0.76057482 0.66459751 2.069
-0.76057482 0.67184103 2.069
-0.756953 0.68813908 2.069
-0.88197893 -0.52481395 2.082
-0.84735584 -0.082002178 2.082
-0.84553355 -0.076535366 2.082
-0.84431875 -0.065601751 2.0820003
-0.76170909 0.57219297 2.082
-0.75806463 0.57583749 2.0820003
-0.75806457 0.5849489 2.082
-0.75806457 0.59041566 2.082
-0.76170909 0.63415015 2.0820003
-0.76170909 0.64508379 2.0820003
-0.76170909 0.65783966 2.082
-0.76170909 0.66512871 2.082
-0.76170909 0.67606235 2.082
-0.76170909 0.68517375 2.0820003
-0.85692525 -0.095349744 2.095
-0.85264671 -0.086181499 2.095
-0.8471458 -0.075179607 2.095
-0.84592336 -0.066011362 2.095
-0.84439528 -0.054092642 2.095
-0.77196622 0.57209843 2.095
-0.76463163 0.57209843 2.095
-0.75790828 0.57821059 2.095
-0.75913066 0.584934 2.095
-0.75821382 0.59318548 2.095
-0.75729704 0.60510421 2.0950003
-0.76279795 0.64727807 2.095
-0.76402044 0.65522385 2.095
-0.76279801 0.66378093 2.095
-0.76402044 0.67478287 2.095
-0.76279795 0.68395102 2.095
-0.85322762 -0.084830984 2.1070001
-0.84830987 -0.071921922 2.1070001
-0.84585094 -0.065160036 2.1070001
-0.84277743 -0.055324554 2.1070004
-0.8363229 -0.055324554 2.1070001
-0.84093326 -0.046103798 2.1070001
-0.76347888 0.57537538 2.1070001
-0.75856113 0.57783431 2.1070001
-0.75733173 0.58521092 2.1070001
-0.7575776 0.59381694 2.1070001
-0.75702435 0.60395974 2.1070001
-0.76347888 0.65467393 2.1070001
-0.76347893 0.66389465 2.1070001
-0.7597906 0.66389465 2.1070001
-0.7647084 0.6749596 2.1070001
-0.85725492 -0.092776507 2.1200001
-0.85539937 -0.085354388 2.1200001
-0.84426624 -0.06308803 2.1200001
-0.83869964 -0.055665907 2.1200001
-0.83498859 -0.046388254 2.1200001
-0.83869964 0.096487567 2.1200001
-0.7570563 0.60861391 2.1200001
-0.7607674 0.64201343 2.1200001
-0.76262295 0.65685767 2.1200001
-0.76447845 0.66056877 2.1200001
-0.85877788 -0.087744698 2.1330001
-0.85131025 -0.0672087 2.1330001
-0.84508723 -0.065964095 2.1330001
-0.7616986 0.60674524 2.1330001
-0.75796479 0.60114449 2.1330001
-0.76356554 0.65528482 2.1330001
-0.76543242 0.66648626 2.1330001
-0.76543248 0.67582083 2.1330001
-0.85689783 -0.090199776 2.1470001
-0.85689783 -0.084562287 2.1470001
-0.85595822 -0.074226893 2.1470001
-0.84938121 -0.071408153 2.1470001
-0.8456229 -0.063891515 2.1470001
-0.84374368 -0.054495696 2.1470001
-0.76293975 0.60884845 2.1470001
-0.76293975 0.61448598 2.1470001
-0.75918144 0.61448598 2.1470001
-0.76293975 0.62576091 2.1470001
-0.75918144 0.62388176 2.1470001
-0.76293975 0.63327754 2.1470001
-0.76669806 0.67461914 2.1470001
-0.85830522 -0.16447699 2.1600001
-0.85528034 -0.085452415 2.1600001
-0.85528034 -0.076377824 2.1600001
-0.84696198 -0.056716204 2.1600001
-0.75999713 0.62387824 2.1600003
-0.75905186 0.63427621 2.1600001
-0.75873679 0.64530438 2.1600003
-0.75747645 0.65412688 2.1600003
-0.76503861 0.66673052 2.1600003
-0.76566875 0.67492282 2.1600001
-0.76529068 0.68361932 2.1600001
-0.86006266 -0.16554305 2.174
-0.85625708 -0.15222348 2.174
-0.84864593 -0.15222348 2.174
-0.84864593 -0.1465151 2.174
-0.84864593 -0.13319555 2.174
-0.85625708 -0.083722912 2.174
-0.85625708 -0.078014538 2.174
-0.7611174 0.6241163 2.1740003
-0.7611174 0.63553303 2.174
-0.7611174 0.64504701 2.174
-0.7611174 0.6640749 2.174
-0.76365447 0.676126 2.1740003
-0.76206881 0.68405426 2.174
-0.85754901 -0.17993215 2.187
-0.85372066 -0.16079043 2.187
-0.84989232 -0.15313375 2.187
-0.84989232 -0.1493054 2.187
-0.76184046 0.63550508 2.187
-0.7618404 0.64507592 2.187
-0.75801206 0.64699006 2.187
-0.7618404 0.65081841 2.187
-0.75648075 0.6554125 2.187
-0.76566875 0.67761683 2.187
-0.7618404 0.68527353 2.187
-0.85918576 -0.19456898 2.2010002
-0.85764468 -0.18570744 2.2010002
-0.85687411 -0.16644317 2.2010002
-0.76286447 0.64727896 2.2010002
-0.86077344 -0.22294807 2.2150002
-0.86077344 -0.21519336 2.2150002
-0.86077344 -0.20549998 2.2150002
-0.86077344 -0.19580656 2.2150002
-0.75996214 0.64558005 2.2150002
-0.86269891 -0.22640967 2.23
-0.85879529 -0.17371088 2.23
-0.76120496 0.64604831 2.23
-0.76120496 0.6538555 2.23
-0.86156821 -0.1675999 2.2440002
-0.76714969 0.63467801 2.2590001
-0.76583159 0.64720023 2.2590003
-0.76517248 0.65444982 2.2590001
-0.77224368 0.64486331 2.2740002
-0.76826304 0.64884394 2.2740002
-0.77333069 0.64911693 2.289
-0.76932383 0.66314107 2.289
-0.77436525 0.65740383 2.3040001
-0.77234864 0.66143703 2.3040001
-0.77162051 0.6497857 2.3200002
-0.77466643 0.65689272 2.3200002
-0.77297425 0.66332293 2.3200002
-0.77365112 0.67212206 2.3200002
-0.77252197 0.67238021 2.335
-0.77781552 0.65846819 2.3510001
-0.77781552 0.66464126 2.3510001
-0.77575779 0.67287219 2.3510001
-0.77896553 0.66294938 2.3670001
-0.77896553 0.67330801 2.3670001
-0.77896553 0.68366653 2.3670001
-0.78247356 0.66562414 2.3840001
-0.78456014 0.67188394 2.3840001
-0.77204055 0.67397058 2.3840001
-0.76786739 0.67605716 2.3840001
-0.78038692 0.68440354 2.3840003
-0.77370989 0.68523818 2.3840001
-0.77412713 0.69274992 2.3840001
-0.78352386 0.66799086 2.4000001
-0.78282368 0.67499292 2.4000001
-0.77442122 0.67359251 2.4000001
-0.78282368 0.68199486 2.4000001
-0.76881963 0.68059444 2.4000001
-0.77003449 0.68541533 2.4170001
-0.77971119 0.67319328 2.434
-0.77545047 0.68597543 2.434
-0.78515708 0.66931427 2.4510002
-0.78229684 0.67503488 2.4510002
-0.78301185 0.68433094 2.4510002
-0.78660125 0.66990769 2.4690001
-0.78660125 0.67422962 2.4690001
