# .PCD v0.7 - Point Cloud Data file format
VERSION 0.7
FIELDS x y z
SIZE 4 4 4
TYPE F F F
COUNT 1 1 1
WIDTH 905
HEIGHT 1
VIEWPOINT 0 0 0 1 0 0 0
POINTS 905
DATA ascii
0.73223597 0.44570884 1.399
0.78121495 0.4665249 1.399
0.78121495 0.47591257 1.399
0.73468494 0.48978993 1.399
0.78121495 0.48611653 1.399
0.72978699 0.49958575 1.399
0.73468494 0.49591237 1.399
0.72978705 0.5044837 1.399
0.7338686 0.50407553 1.399
0.74937862 0.5167284 1.399
0.75542194 0.51660818 1.3978001
0.76477212 0.51585376 1.399
0.73860323 0.52701396 1.399
0.74622488 0.5260458 1.3986002
0.75515109 0.52582449 1.399
0.73664415 0.54342192 1.399
0.73958284 0.55836052 1.399
0.73546737 0.37725729 1.404
0.7258414 0.38585922 1.404
0.72379327 0.39200348 1.404
0.73555505 0.43448666 1.404
0.74468374 0.43337482 1.4040002
0.73625731 0.4458974 1.4040002
0.74271756 0.44631869 1.4040002
0.75942993 0.44853061 1.404
0.72944599 0.45565796 1.4040002
0.7336241 0.45221719 1.404
0.74468374 0.45774701 1.404
0.75767452 0.45502597 1.4040002
0.76250207 0.45467487 1.404
0.74538594 0.46731454 1.4040002
0.75390011 0.46757782 1.404
0.78277814 0.46573454 1.404
0.74676341 0.47528177 1.4040002
0.75451458 0.47784752 1.4040002
0.77571219 0.47587258 1.4040002
0.78154927 0.47925189 1.404
0.73780221 0.4876081 1.4040002
0.74657428 0.48586884 1.4040002
0.75574344 0.48539618 1.4039999
0.77540505 0.48539618 1.4039999
0.78154927 0.48539615 1.404
0.73632759 0.49645582 1.4040002
0.74591267 0.49522692 1.4039999
0.75574344 0.49522695 1.4039999
0.76557404 0.49522698 1.4039999
0.77540505 0.49522695 1.4039999
0.78154927 0.49522698 1.404
0.73894906 0.50710583 1.404
0.74525094 0.50439614 1.4040002
0.75553864 0.5040338 1.4040002
0.76610082 0.50470674 1.404
0.77540505 0.50505775 1.4039999
0.78154933 0.50382894 1.404
0.73608172 0.51488858 1.4039999
0.74556154 0.51541531 1.404
0.75574338 0.51243091 1.4040002
0.76557422 0.51120204 1.404
0.77568865 0.51403779 1.4040002
0.78154933 0.51611745 1.404
0.73608178 0.52419269 1.404
0.74538594 0.52208614 1.4040002
0.73731065 0.53086364 1.404
0.75451458 0.53823674 1.404
0.73485291 0.5468387 1.404
0.73812991 0.55434835 1.4040002
0.74542111 0.55372024 1.4040002
0.73785686 0.56417918 1.4040002
0.742226 0.5652715 1.404
0.73567218 0.57100612 1.404
0.72378278 0.28753012 1.416
0.72378278 0.29496625 1.416
0.79070795 0.32718945 1.4160001
0.77211756 0.33834365 1.416
0.7433883 0.3448765 1.4140002
0.72874016 0.35941267 1.416
0.73468924 0.35544673 1.4160004
0.74478143 0.35405824 1.4154001
0.75427693 0.35686702 1.4145
0.76385522 0.35693395 1.4160001
0.79070789 0.35693395 1.416
0.72874016 0.36437008 1.416
0.73347235 0.36594748 1.4160002
0.74856985 0.36808813 1.416
0.75537831 0.36577588 1.4155387
0.76308799 0.36684883 1.4160001
0.78779334 0.36730832 1.413
0.79070789 0.36313075 1.416
0.73375255 0.37359992 1.4113333
0.74504089 0.37474602 1.4112
0.76439524 0.37523413 1.4137501
0.78801125 0.37389106 1.4145
0.73608178 0.38534591 1.41225
0.7430194 0.3849301 1.4108
0.77186966 0.38717422 1.416
0.72812057 0.39861515 1.4100001
0.73444116 0.39539826 1.413
0.74411178 0.39442241 1.4136925
0.76652092 0.39528793 1.4151431
0.77310914 0.39609751 1.4160002
0.72812057 0.40478569 1.4100002
0.73406112 0.40596935 1.4124001
0.74609113 0.40650815 1.4160001
0.75409633 0.4072997 1.4132729
0.76563734 0.40330479 1.4100001
0.73756135 0.41566679 1.4145
0.7455163 0.41621616 1.4144212
0.75337189 0.41524321 1.4120001
0.73799336 0.42329723 1.4100001
0.74506122 0.42603755 1.4121177
0.76514375 0.42699951 1.4100002
0.77571297 0.4253805 1.4109232
0.78324944 0.4259111 1.4115
0.73305696 0.43193594 1.4100001
0.7453981 0.435462 1.4100001
0.75245392 0.43576321 1.4111999
0.766747 0.43707883 1.4160001
0.77446508 0.43530184 1.41125
0.74504548 0.44498217 1.4100001
0.7549873 0.44499889 1.4144002
0.76464158 0.44552839 1.4131581
0.77414536 0.4450337 1.4106667
0.78587657 0.44451177 1.4121819
0.73675931 0.45785207 1.4100001
0.74448508 0.45570683 1.411
0.7550385 0.45474902 1.411875
0.76563734 0.45365617 1.4100001
0.77232379 0.45504737 1.41
0.78504515 0.45489156 1.414737
0.73728096 0.46435341 1.4110001
0.74292982 0.46525669 1.4100001
0.75368422 0.46472788 1.4100001
0.76362473 0.46478203 1.4100001
0.77368665 0.46531045 1.4127693
0.78477305 0.46474481 1.4152943
0.73848963 0.47293171 1.4145
0.74253768 0.47539032 1.4120001
0.75712198 0.47389543 1.4100001
0.76376069 0.47456756 1.4120001
0.77517617 0.47321692 1.4124001
0.78342509 0.47114363 1.4136
0.74480402 0.48445326 1.4120001
0.76613092 0.48327455 1.4100001
0.77378237 0.48315117 1.41
0.73799336 0.49117285 1.4100001
0.75280261 0.50845027 1.4100001
0.76390958 0.50845027 1.4100001
0.753214 0.51174128 1.4100001
0.76390958 0.5109185 1.4100001
0.73799336 0.55411208 1.4100001
0.73641586 0.21614198 1.4280002
0.74580759 0.21676093 1.4280002
0.72755164 0.22658473 1.4250001
0.73455894 0.2246172 1.4280002
0.74696004 0.22633776 1.4280003
0.75991315 0.22372442 1.4280001
0.76241285 0.22497429 1.4280001
0.74703002 0.23651144 1.4280003
0.76407933 0.23413992 1.4280002
0.7769112 0.23697291 1.4280001
0.73741573 0.24897154 1.4280001
0.74577349 0.24609385 1.42725
0.75491369 0.24997142 1.4280001
0.7661624 0.24997142 1.4280001
0.7724117 0.24997142 1.4280001
0.72991657 0.25997028 1.4280001
0.73624921 0.2561374 1.4280002
0.74616474 0.25622073 1.4280001
0.75716347 0.25697061 1.4280003
0.76616251 0.25675637 1.4280002
0.77291167 0.25697064 1.4280001
0.72914982 0.26593599 1.4265001
0.73658246 0.26621959 1.4280003
0.74491495 0.26621956 1.4280003
0.75741351 0.26621956 1.4280003
0.7661624 0.26621956 1.4280001
0.7749114 0.26621959 1.4280003
0.79740888 0.26871929 1.4280001
0.72884101 0.2743111 1.4220001
0.73679703 0.27624038 1.4263639
0.74616474 0.27621841 1.4280001
0.75576705 0.27607203 1.4272501
0.7661624 0.27621844 1.4280001
0.77616125 0.27621844 1.4280001
0.78491032 0.27871817 1.4280002
0.79562342 0.27746832 1.4280002
0.72778308 0.28439239 1.4220001
0.73569173 0.28562614 1.4232858
0.74517393 0.28487054 1.4226669
0.7552954 0.28541556 1.424
0.76596022 0.28614181 1.4276251
0.77616131 0.28621727 1.4280001
0.78591019 0.28596732 1.4280002
0.79462993 0.28611577 1.4275002
0.72871655 0.29372692 1.4220001
0.73584121 0.29602629 1.4256924
0.74582636 0.29549691 1.4254738
0.75545013 0.29567128 1.4231251
0.76504421 0.2951594 1.4243079
0.77616131 0.29621616 1.4280001
0.78595179 0.29579955 1.4280003
0.79383034 0.29621616 1.4254287
0.73563516 0.3050366 1.4252002
0.74557799 0.3061254 1.4264002
0.75613683 0.30570146 1.4256002
0.76607144 0.30567762 1.4255002
0.77595717 0.3061336 1.4276251
0.78651726 0.30675066 1.4280002
0.79390401 0.30632845 1.4262003
0.72933888 0.31737444 1.4220001
0.73540878 0.31549969 1.425231
0.74597627 0.31605199 1.4269413
0.75633383 0.31558761 1.4254739
0.76628172 0.31580874 1.4245716
0.77553195 0.31537959 1.4258572
0.78616005 0.31621385 1.4280001
0.79407156 0.31588215 1.4265002
0.72933888 0.32608667 1.4220001
0.73613292 0.32568756 1.4241432
0.74621952 0.32517114 1.4246669
0.75587475 0.32501206 1.4227502
0.76583546 0.32501343 1.4227501
0.77468824 0.32507315 1.4230001
0.78574586 0.32603937 1.42725
0.79340506 0.32530209 1.4262002
0.73672384 0.3340821 1.4242501
0.74427426 0.33230969 1.4220002
0.75679845 0.33315635 1.4226667
0.76543248 0.33262086 1.4220001
0.77549964 0.33499849 1.4228574
0.78492922 0.33473065 1.4223752
0.79212415 0.33503348 1.4230001
0.735147 0.34185171 1.4220002
0.74925268 0.35595721 1.4220002
0.75423104 0.35844642 1.4220001
0.76916629 0.35844642 1.4220001
0.77523702 0.35895056 1.4240001
0.78879994 0.35945472 1.4260001
0.79156917 0.35844642 1.4220001
0.7343173 0.36508435 1.4220002
0.74551874 0.36466947 1.4220003
0.75316423 0.36413607 1.4220002
0.76750684 0.36466944 1.4220002
0.77550924 0.36530924 1.4245002
0.78677422 0.36606732 1.4265883
0.79177928 0.36505806 1.4235001
0.74585831 0.3733817 1.4220001
0.75174183 0.37587091 1.4220001
0.76667708 0.37462631 1.4220001
0.77535427 0.37484318 1.4224617
0.78555715 0.37481686 1.4241179
0.79198933 0.37790847 1.4250001
0.76667708 0.38084933 1.4220001
0.77718705 0.38361511 1.4220001
0.78553694 0.38488111 1.4228002
0.79156917 0.38707235 1.4220001
0.77912313 0.39453998 1.4220001
0.78534609 0.39454001 1.4220003
0.79156917 0.39453998 1.4220001
0.7455188 0.40325221 1.4220001
0.75174183 0.40325221 1.4220001
0.78708857 0.40399894 1.4220001
0.79156917 0.40449682 1.4220001
0.73929572 0.4181875 1.4220001
0.7455188 0.41196448 1.4220001
0.79156917 0.41569829 1.4220001
0.78907996 0.45801488 1.4220001
0.78907996 0.46299329 1.4220001
0.74510396 0.48456645 1.4220002
0.7442742 0.49037462 1.4220001
0.74553448 0.18575606 1.434
0.77515507 0.19479284 1.434
0.7806775 0.19579692 1.434
0.72796291 0.20207247 1.434
0.74469775 0.20834801 1.434
0.7543202 0.20834801 1.434
0.78444278 0.20332758 1.434
0.80075926 0.2058378 1.434
0.7354936 0.21085823 1.434
0.74427938 0.21085823 1.434
0.7553243 0.21437252 1.434
0.76247835 0.21462356 1.434
0.74266571 0.22663674 1.4340001
0.75557536 0.22466443 1.434
0.76445758 0.22456788 1.434
0.77440196 0.22717462 1.434
0.78426349 0.22735395 1.4340001
0.79071838 0.22717464 1.434
0.80075926 0.22842975 1.434
0.7354936 0.23439151 1.434
0.74469775 0.23386857 1.434
0.75683045 0.23470528 1.434
0.76368523 0.23460874 1.434
0.77404338 0.23416741 1.4340001
0.78486121 0.23428693 1.434
0.79155511 0.23554203 1.434
0.80075926 0.2347053 1.434
0.73633039 0.24558291 1.434
0.74176919 0.24474615 1.434
0.75683045 0.24474615 1.434
0.76436108 0.24474618 1.434
0.77440184 0.24474619 1.434
0.78318775 0.24241526 1.4340001
0.79071838 0.24098083 1.434
0.80075926 0.24474615 1.434
0.73465681 0.25478703 1.434
0.7555753 0.25478703 1.434
0.76310599 0.25227684 1.434
0.77565706 0.25478703 1.434
0.7806775 0.25729722 1.434
0.80075926 0.25478703 1.434
0.73800385 0.266083 1.434
0.75449955 0.26536581 1.4340001
0.78501338 0.26517022 1.434
0.80075926 0.26357278 1.434
0.73800379 0.27235854 1.434
0.7543202 0.27110344 1.434
0.78677374 0.27361366 1.4340001
0.7947734 0.27515841 1.434
0.79573882 0.29512984 1.4340001
0.78695303 0.30248117 1.434
0.79824901 0.3037363 1.434
0.73800379 0.31377712 1.434
0.78695303 0.36272636 1.434
0.72899228 0.084795982 1.4460001
0.77771837 0.098084897 1.4460001
0.80746019 0.091124035 1.4460001
0.74671084 0.10504576 1.4460001
0.7517733 0.10504577 1.4460001
0.76189822 0.1088426 1.4460001
0.77835119 0.10251454 1.4460001
0.80746019 0.10504577 1.4460001
0.74671084 0.11137382 1.4460001
0.7517733 0.11137382 1.4460001
0.80746019 0.11517066 1.4460001
0.73152351 0.12909238 1.4460001
0.80746019 0.12656116 1.4460001
0.74755466 0.13837354 1.4460001
0.75481075 0.13693918 1.4460001
0.76569504 0.13921727 1.4460001
0.80746019 0.13542044 1.4460001
0.74770743 0.14582951 1.4446667
0.7553466 0.14550109 1.4455714
0.76559764 0.14622684 1.4460001
0.77744716 0.14608775 1.4460002
0.78467929 0.14427972 1.4460001
0.79733533 0.1430141 1.4460001
0.805785 0.14523813 1.4430001
0.73658597 0.15820146 1.4460001
0.74470359 0.15573205 1.4426669
0.75605333 0.15551007 1.4445002
0.76569498 0.15567024 1.4459999
0.77581984 0.15567024 1.4459999
0.78586054 0.15575463 1.446
0.79227287 0.15693584 1.4460001
0.80662262 0.15551268 1.4445001
0.73557341 0.16604824 1.446
0.74428529 0.16553518 1.4437499
0.75557017 0.16579512 1.4459999
0.76569498 0.16579513 1.4459999
0.7758199 0.16579512 1.4459999
0.78619802 0.16554201 1.446
0.80746019 0.16579512 1.4460001
0.72684962 0.17682067 1.4430001
0.73540467 0.17583565 1.446
0.74448526 0.1756566 1.4422109
0.75526339 0.17555091 1.4430001
0.76594812 0.17566691 1.446
0.77556682 0.17583565 1.446
0.78643161 0.17601736 1.4460001
0.79577774 0.17679623 1.4460001
0.80409336 0.17665932 1.444
0.72798401 0.18451673 1.4400001
0.7357983 0.18603563 1.4436924
0.74412537 0.18512064 1.4410002
0.75495571 0.18527292 1.4400003
0.76642942 0.18591887 1.4450001
0.7747305 0.18589438 1.4426668
0.78577876 0.18570225 1.4433751
0.7966122 0.18568332 1.446
0.80381215 0.18578759 1.4440001
0.72848815 0.19157474 1.4400001
0.73444623 0.19524124 1.4400002
0.74436367 0.1952845 1.4409475
0.75474399 0.19562629 1.4420003
0.76569498 0.19616979 1.4459999
0.77371663 0.19555932 1.4415003
0.78556454 0.19517578 1.4400003
0.79678577 0.19603413 1.4450001
0.80394071 0.19621897 1.4438183
0.73559201 0.20555328 1.4400002
0.74448985 0.20473853 1.4404002
0.75500822 0.20529866 1.4405003
0.76586908 0.20568477 1.4442859
0.77564883 0.20564269 1.4428422
0.78478426 0.20501858 1.4400003
0.79461086 0.20476651 1.4406003
0.80381215 0.2050256 1.4440001
0.75747645 0.21174049 1.4400001
0.76661402 0.21552157 1.4400001
0.77504343 0.21564989 1.4408574
0.78639257 0.21461438 1.4445001
0.79573166 0.21468461 1.4441538
0.80381215 0.21443278 1.4440001
0.77638185 0.22308373 1.4400001
0.7861864 0.22310686 1.4418001
0.79580194 0.22401775 1.4425718
0.80340797 0.22416076 1.4432729
0.73415977 0.23694772 1.4400001
0.74361241 0.2369477 1.4400001
0.78898543 0.23190627 1.4400001
0.79822814 0.2348471 1.4400001
0.80158901 0.23568735 1.4400001
0.73464292 0.24572192 1.4412001
0.74298227 0.24261934 1.4400001
0.787305 0.24787083 1.4400001
0.79486293 0.24587314 1.4406003
0.8018586 0.24611157 1.4420002
0.73352957 0.25459275 1.4400001
0.7860446 0.25501287 1.4400003
0.79518062 0.25561237 1.4413849
0.80199337 0.25512052 1.4430001
0.78898543 0.26215491 1.4400001
0.79666162 0.26537108 1.4408575
0.80158901 0.26593599 1.4400001
0.79528725 0.27223778 1.4400001
0.81416112 0.0063805729 1.4580001
0.81416118 0.012761146 1.4580001
0.7246896 0.027188769 1.4560001
0.72738534 0.030626751 1.4580001
0.74525094 0.048492353 1.4580001
0.72962952 0.057692986 1.454
0.73488444 0.054654118 1.456
0.74320906 0.055383373 1.4580001
0.81416112 0.057425156 1.4580001
0.72907108 0.06430725 1.455
0.7346167 0.064656474 1.4580001
0.74333674 0.064443789 1.4580001
0.76592398 0.065847516 1.4580001
0.77396357 0.065719903 1.4580001
0.78098214 0.061253499 1.4580001
0.79629552 0.066357963 1.4580001
0.80650443 0.066996016 1.4580001
0.8116352 0.065796047 1.4550002
0.73504204 0.075290762 1.4580001
0.74269873 0.071462415 1.4580001
0.75776452 0.074613318 1.4554286
0.76551449 0.075531669 1.4565001
0.77548504 0.0751926 1.4580001
0.78479475 0.078296877 1.4562858
0.79520017 0.075859427 1.4550002
0.80506486 0.074857138 1.4567144
0.81120974 0.075135842 1.455
0.73522937 0.08532463 1.4550002
0.74461287 0.08443626 1.4580001
0.75436872 0.085472867 1.4564211
0.7655862 0.085367702 1.4572001
0.77491969 0.085474171 1.4575715
0.78410625 0.085565604 1.4543333
0.79410702 0.085093454 1.4523528
0.80650443 0.085499689 1.4580001
0.81115276 0.084751718 1.4545715
0.72947544 0.092773005 1.452
0.73480147 0.096021585 1.4549999
0.74521405 0.09568233 1.4548571
0.75575656 0.095361985 1.4527498
0.76556849 0.09560404 1.4547274
0.77448261 0.094972439 1.4548236
0.78461134 0.094630428 1.4519999
0.79428947 0.095314734 1.4519998
0.80539811 0.095578186 1.4560001
0.81126678 0.096084453 1.4554287
0.73718941 0.10521144 1.4530908
0.74456978 0.10522068 1.4524615
0.75658721 0.10548165 1.4519999
0.76505965 0.10513505 1.4519999
0.7739557 0.10548164 1.4519998
0.78496981 0.10632889 1.4519999
0.79428941 0.10548163 1.4519998
0.80512327 0.10573196 1.4555
0.8112098 0.10569957 1.455
0.73805374 0.11596625 1.4519999
0.7453928 0.11599645 1.4523748
0.7562483 0.11590272 1.4519999
0.76505965 0.11564855 1.4519999
0.77395564 0.11564855 1.4519998
0.78386837 0.11556385 1.4519999
0.7943005 0.11578015 1.4527057
0.80457014 0.11584898 1.4545
0.81134284 0.11596714 1.4560001
0.73608392 0.12657797 1.452
0.74516743 0.12567939 1.4544545
0.7561636 0.12581544 1.4519998
0.76505965 0.12581545 1.4519999
0.77395558 0.12581545 1.4519998
0.78399175 0.1262275 1.4533846
0.79510939 0.12553449 1.456125
0.80447316 0.12579936 1.4527999
0.8112098 0.12225492 1.455
0.73618263 0.1332978 1.4532001
0.7446962 0.13559127 1.4534117
0.75489277 0.13344064 1.452
0.7653138 0.13521984 1.4519999
0.77404046 0.1357282 1.4519999
0.78412259 0.13598235 1.4519998
0.79465413 0.13533583 1.4526665
0.80442673 0.13564005 1.4523528
0.74549258 0.14545082 1.4535
0.76505959 0.14233667 1.452
0.7741372 0.14487839 1.452
0.78412259 0.14640342 1.4519999
0.79454356 0.14623399 1.4519999
0.80500102 0.14651237 1.4519999
0.73837149 0.1550453 1.452
0.74320638 0.15271014 1.454
0.79598391 0.15462169 1.452
0.80369377 0.15479115 1.4519999
0.81160891 0.1569621 1.4580001
0.79683113 0.16394134 1.4519999
0.80391175 0.16430444 1.4519999
0.81160891 0.16206655 1.4580001
0.73455888 0.17664997 1.452
0.78475803 0.17474367 1.452
0.79556036 0.17283738 1.452
0.80487996 0.17199014 1.4519999
0.80572718 0.19317119 1.452
0.72525322 -0.030752787 1.4640001
0.81751156 -0.0038440982 1.4640001
0.74831784 0.0051254644 1.4640001
0.75344324 0.0064068306 1.4640001
0.81751156 0.0012813661 1.4640001
0.74767709 0.012172978 1.4640001
0.75395578 0.014863848 1.4640001
0.81751156 0.017939126 1.4640001
0.72781593 0.021783223 1.4640001
0.73294139 0.027335811 1.4640001
0.75515175 0.021356102 1.4640001
0.81751156 0.024345957 1.4640001
0.73403972 0.034413837 1.4640001
0.74575508 0.037159618 1.4640001
0.79572833 0.033315517 1.4640001
0.81580305 0.035451129 1.4640001
0.73678547 0.044847813 1.464
0.74421746 0.045360353 1.464
0.75301617 0.046129178 1.4640001
0.76881969 0.048691913 1.4640001
0.77778924 0.048691913 1.4640001
0.78419608 0.046129182 1.464
0.79591149 0.045030866 1.4640002
0.80799288 0.04429866 1.4640001
0.81648648 0.044078995 1.4640001
0.73550415 0.051254645 1.4640001
0.74319232 0.052536011 1.4640001
0.75321037 0.054982264 1.4640001
0.76753843 0.056380115 1.4640001
0.77514118 0.05535502 1.4640002
0.7854774 0.055098739 1.4640002
0.79572839 0.055098742 1.4640002
0.80726069 0.057661474 1.4640001
0.81452173 0.055525862 1.4640001
0.73806685 0.064068303 1.4640001
0.74412423 0.065466166 1.4640001
0.75376362 0.066951379 1.464
0.76401448 0.065029323 1.464
0.77797234 0.064800516 1.4640001
0.78629285 0.065466158 1.4640001
0.79664356 0.065166622 1.4640001
0.80526739 0.064922549 1.464
0.81409466 0.062359817 1.4640001
0.73806685 0.075600602 1.4640001
0.74438822 0.075856872 1.4640002
0.75472462 0.075600594 1.4640002
0.78639275 0.07358703 1.4640001
0.79393446 0.073806696 1.4640001
0.74511433 0.089054942 1.4640001
0.78419608 0.08200743 1.4640001
0.81494886 0.089695625 1.4640001
0.74575508 0.092258357 1.4640001
0.81494886 0.10635339 1.4640001
0.76530468 -0.15771481 1.4770001
0.77047569 -0.15771481 1.4770001
0.72910786 -0.11117602 1.4770001
0.72652239 -0.1047123 1.4770001
0.7844373 -0.10186826 1.4770001
0.72910786 -0.09178485 1.4770001
0.73341697 -0.092646681 1.4770001
0.77564669 -0.095663086 1.4770001
0.78185183 -0.096180186 1.4770001
0.80796528 -0.090492107 1.4770001
0.81184351 -0.090492107 1.4770001
0.72910786 -0.086613879 1.4770001
0.73520219 -0.084213056 1.477
0.76530468 -0.0814429 1.4770001
0.79604322 -0.082161091 1.4770001
0.80559516 -0.083166569 1.4770001
0.73557156 -0.074979179 1.4770001
0.745655 -0.073427886 1.4770001
0.7549628 -0.072393686 1.4770001
0.76401192 -0.074332803 1.4770001
0.77435392 -0.072393686 1.4770001
0.78862065 -0.073288195 1.4742001
0.79378551 -0.075094365 1.4742001
0.80537975 -0.074979179 1.4770001
0.81184351 -0.072393686 1.4770001
0.82477093 -0.072393686 1.4770001
0.73686427 -0.065929964 1.4770001
0.74617547 -0.0655884 1.4765624
0.75519788 -0.066282541 1.4770002
0.76401186 -0.065929964 1.4769999
0.77435392 -0.065929964 1.4770001
0.7856248 -0.066253468 1.4755998
0.7944262 -0.065179437 1.4746668
0.80537963 -0.065929972 1.4769999
0.81542355 -0.065034993 1.4770001
0.82152379 -0.065773733 1.4735001
0.73686433 -0.059466243 1.4770001
0.74662393 -0.055829402 1.4765333
0.7545473 -0.05565986 1.4757274
0.76390052 -0.055315912 1.4757645
0.77435392 -0.055588007 1.477
0.78469592 -0.055588011 1.4769999
0.79503781 -0.055588014 1.4769999
0.80537963 -0.055588007 1.4769999
0.81580806 -0.055846561 1.477
0.82260609 -0.056357935 1.4746668
0.72766197 -0.042098947 1.4723334
0.73612565 -0.042845242 1.4770001
0.74544728 -0.045174576 1.4746665
0.75468016 -0.044829797 1.4708234
0.76537174 -0.045272373 1.4704117
0.77693939 -0.045246053 1.4770001
0.78469598 -0.045246053 1.4769999
0.79503781 -0.045246057 1.4769999
0.80537963 -0.045246057 1.4769999
0.81485999 -0.046107888 1.4770001
0.82477093 -0.0465388 1.4770001
0.72822559 -0.036025293 1.47
0.73512125 -0.034824453 1.4735001
0.74618417 -0.034665797 1.4755261
0.75507581 -0.034976535 1.4704117
0.76528019 -0.034995999 1.47
0.77364522 -0.034342483 1.4715557
0.78469598 -0.034904096 1.4769999
0.79503781 -0.034904096 1.4769999
0.80537963 -0.034904096 1.4769999
0.81313622 -0.0349041 1.4770001
0.82477093 -0.0349041 1.4770001
0.72822559 -0.027018968 1.47
0.73562843 -0.024174411 1.4760001
0.74688119 -0.02409447 1.4746667
0.75507587 -0.024528626 1.4704117
0.76472014 -0.023700722 1.4714001
0.77479893 -0.024450064 1.4745293
0.78519309 -0.025258239 1.4770001
0.79503781 -0.024562143 1.4769999
0.80537963 -0.024562147 1.4769999
0.81313622 -0.028440377 1.4770001
0.82379371 -0.024537636 1.4752501
0.73686439 -0.014102667 1.4770002
0.74542826 -0.014187102 1.4734998
0.75417233 -0.014581665 1.4700001
0.76327366 -0.013755575 1.4735001
0.77435386 -0.014220188 1.4769999
0.785007 -0.013989174 1.4765881
0.7948724 -0.014475471 1.4765333
0.80537969 -0.014220188 1.4769999
0.81572175 -0.012927445 1.4770001
0.82142931 -0.013627645 1.4730002
0.73462522 -0.0049158824 1.4706366
0.74704289 -0.0051679146 1.4758334
0.75389397 -0.0051546399 1.4715557
0.76391596 -0.0055865753 1.4735001
0.77588975 -0.0051658726 1.4758334
0.78602368 -0.0053469026 1.475
0.79538697 -0.0045169471 1.4752501
0.80537975 -0.0051709786 1.4770001
0.81507438 -0.0051679146 1.4758334
0.82185465 -0.0058081597 1.4752501
0.72822559 0.0077197053 1.47
0.73486704 0.0036074312 1.4709333
0.74498755 0.0040912284 1.4708234
0.75575918 0.0033452057 1.4700001
0.76507759 0.0039456277 1.4709333
0.77612835 0.0037655956 1.4737693
0.78516686 0.0038756081 1.4765
0.79557949 0.0039506736 1.4761764
0.80472136 0.0034864817 1.4728823
0.81473094 0.0039405818 1.4712352
0.72822559 0.012866177 1.47
0.73564941 0.014480811 1.4737693
0.74444705 0.014165727 1.4715554
0.75556618 0.014152794 1.4700001
0.7655375 0.014152793 1.4699999
0.77564663 0.014520397 1.47
0.78591043 0.01417347 1.4726249
0.79601198 0.013808821 1.473
0.80412906 0.014528275 1.4710001
0.81564492 0.013900235 1.4734999
0.73594528 0.022791512 1.4700001
0.74540418 0.024396721 1.4716469
0.75537753 0.025166808 1.4716154
0.76553744 0.024445737 1.4699999
0.77557313 0.024188412 1.47
0.7859633 0.024680713 1.4704117
0.79512966 0.024445735 1.4700001
0.80413604 0.024445733 1.4699999
0.81442988 0.024827348 1.4710001
0.82218546 0.021976655 1.4770001
0.73594528 0.037311912 1.47
0.7444002 0.034371071 1.47
0.75524455 0.034738675 1.4699999
0.7655375 0.034738675 1.4699999
0.77583039 0.034738675 1.4699999
0.78612334 0.034738675 1.4699999
0.79489583 0.034855641 1.4700003
0.80439341 0.034824453 1.47
0.81424516 0.034371071 1.47
0.73484248 0.044480212 1.4700001
0.74538052 0.042029511 1.47
0.75653112 0.042458382 1.4700001
0.76553744 0.045031611 1.4699999
0.77583045 0.044480208 1.47
0.78483677 0.042458382 1.4700001
0.79307115 0.044259645 1.4700001
0.80606592 0.045353271 1.4700001
0.81571561 0.045746405 1.4700001
0.75910437 0.056611173 1.47
0.76516992 0.054773156 1.47
0.77969027 0.051464703 1.47
0.80670923 0.05403794 1.4700001
0.81442893 0.053394631 1.4700001
0.75781775 0.064330891 1.4700001
0.76296425 0.063044265 1.47
0.7954973 0.065433703 1.4700001
0.80670923 0.061757643 1.47
0.79512966 0.072050586 1.47
0.59862494 -0.49088988 1.4890001
0.60296917 -0.49088988 1.4890001
0.60433453 -0.48518044 1.4890002
0.60530835 -0.47558504 1.4890002
0.61773926 -0.47307879 1.4890001
0.62121463 -0.47264439 1.4890001
0.62180531 -0.45480171 1.4853077
0.62164903 -0.4448418 1.4890002
0.62034577 -0.43528464 1.4890001
0.62211204 -0.42168498 1.4870002
0.76581752 -0.15835549 1.483
0.7745477 -0.15730415 1.4878002
0.76449168 -0.14369625 1.4880002
0.77543217 -0.14205396 1.4890002
0.78629267 -0.14422604 1.4890002
0.79367769 -0.14466047 1.4890001
0.83147186 -0.14075072 1.4890001
0.7644245 -0.13513073 1.4845002
0.77536219 -0.13510409 1.4868183
0.78429431 -0.13397384 1.4890002
0.83147186 -0.13423449 1.4890001
0.74448007 -0.12478593 1.4890002
0.75470722 -0.12570243 1.4863751
0.76521897 -0.12612417 1.485625
0.77452147 -0.12550604 1.4860001
0.78325176 -0.12511174 1.4890002
0.80801338 -0.1238085 1.4890001
0.81468391 -0.1240109 1.4875002
0.82313102 -0.12354785 1.4890002
0.83147186 -0.12511174 1.4890001
0.73805177 -0.11472537 1.48525
0.74380368 -0.11648747 1.4870002
0.75460333 -0.11616217 1.4882944
0.7652669 -0.11572837 1.4890003
0.77507651 -0.11565215 1.4875884
0.78555751 -0.11588878 1.4890002
0.79498094 -0.11273091 1.4890001
0.80651367 -0.11602376 1.4865295
0.81411785 -0.11492348 1.4854001
0.82300073 -0.11729226 1.4890002
0.83147186 -0.11598902 1.4890001
0.72947365 -0.10124367 1.483
0.73587716 -0.10487808 1.483
0.74403173 -0.10571269 1.485
0.75458026 -0.10612158 1.4890002
0.77500761 -0.10532987 1.4857
0.78533638 -0.10560708 1.4835
0.7942645 -0.10662322 1.4855716
0.80527276 -0.10547795 1.4878001
0.81394917 -0.10531773 1.4855715
0.82397813 -0.1045856 1.4890002
0.83147186 -0.10556304 1.4890001
0.73614734 -0.096961364 1.4836667
0.74518669 -0.09445174 1.485
0.77382183 -0.094321035 1.483
0.78580666 -0.093715303 1.4829999
0.79480618 -0.093888365 1.483
0.8049401 -0.095162697 1.4864287
0.81445724 -0.095834084 1.4857693
0.8247804 -0.094649546 1.4854001
0.83147186 -0.099046804 1.4890001
0.72947365 -0.088263713 1.483
0.73596358 -0.083071731 1.483
0.74542052 -0.084184304 1.483
0.78473121 -0.084740587 1.483
0.79404032 -0.085073858 1.4840001
0.80540645 -0.087614715 1.483
0.8160066 -0.08451394 1.4829999
0.82589394 -0.084541708 1.4860001
0.74699658 -0.075932756 1.483
0.75413555 -0.076581761 1.483
0.77576876 -0.074851088 1.483
0.78528744 -0.075802952 1.4829999
0.79177743 -0.077879749 1.483
0.81687206 -0.074851096 1.483
0.82506514 -0.074827686 1.4857693
0.74764556 -0.067495778 1.483
0.77749956 -0.064899787 1.483
0.77879751 -0.059707806 1.483
0.81773734 -0.051919833 1.483
0.82552534 -0.053217828 1.483
0.82408309 -0.043843407 1.4829999
0.82292938 -0.035045885 1.483
0.81643939 -0.023363924 1.483
0.82292938 -0.024661917 1.483
0.81643939 -0.018171942 1.483
0.82292938 -0.018171942 1.4830002
0.60466897 -0.50332332 1.4960002
0.61383468 -0.50437087 1.4960003
0.59576517 -0.49494341 1.4960001
0.60558552 -0.49690747 1.4960001
0.61278707 -0.49494341 1.4960002
0.61304897 -0.48577783 1.4960002
0.60624021 -0.47137469 1.4960001
0.61442387 -0.4756301 1.4960002
0.62849957 -0.47399342 1.4960001
0.63242769 -0.47268406 1.4960001
0.59969336 -0.46089968 1.4960001
0.60605323 -0.46501485 1.4960002
0.61173964 -0.46456596 1.4960002
0.63242769 -0.46482781 1.4960001
0.60440713 -0.45304346 1.4960002
0.6311183 -0.45697159 1.4960001
0.62762666 -0.44518718 1.4960001
0.62588084 -0.43994969 1.4960001
0.63635582 -0.42161846 1.4960001
0.68873078 -0.24092484 1.4960001
0.69484127 -0.24092484 1.4960001
0.68873078 -0.23699671 1.4960001
0.6939683 -0.23765141 1.4960001
0.78514838 -0.15522034 1.4960002
0.78475159 -0.14723183 1.4960002
0.79406273 -0.14490406 1.4960002
0.82523298 -0.14435849 1.4960002
0.79516435 -0.13505261 1.4960002
0.80535251 -0.13477825 1.4960003
0.8151449 -0.13379423 1.4960002
0.82490563 -0.13486554 1.4960002
0.81547827 -0.12779491 1.4960002
0.82621503 -0.12831867 1.4960001
0.83188903 -0.12526345 1.4960002
0.65889037 -0.59684002 1.5020001
0.70615846 -0.59503961 1.5024377
0.68435651 -0.57449144 1.5020002
0.6060366 -0.55584806 1.5090001
0.61018759 -0.55603677 1.5090001
0.60679424 -0.54486895 1.5055001
0.61177254 -0.54573482 1.5090001
0.60637605 -0.536313 1.5048002
0.61673492 -0.53461611 1.50725
0.62339509 -0.53358394 1.5090001
0.59552538 -0.52847952 1.5020001
0.59763473 -0.51563859 1.5040001
0.60534859 -0.51294142 1.5035555
0.59954542 -0.50599563 1.5055001
0.60213965 -0.50606477 1.5037501
0.6337992 -0.50203645 1.5055001
0.5994693 -0.49955773 1.5020001
0.60209852 -0.49955773 1.5020001
0.62325472 -0.49590459 1.5051111
0.63548881 -0.49710566 1.5068463
0.62374336 -0.48498693 1.5041
0.63635451 -0.48584697 1.5084167
0.5994693 -0.47063598 1.5020001
0.6047278 -0.47129327 1.5020001
0.61524481 -0.47195059 1.5020001
0.62839103 -0.47852373 1.5020001
0.63627875 -0.47545624 1.5020001
0.5994693 -0.46406284 1.5020001
0.60439909 -0.46307689 1.502
0.63693613 -0.46406287 1.5020001
0.60801435 -0.45551777 1.5020001
0.63589668 -0.45389506 1.5031667
0.64593679 -0.45519873 1.5067898
0.6047278 -0.4469727 1.5020001
0.63328701 -0.43575677 1.5045455
0.63562149 -0.42528138 1.5020001
0.69543695 -0.28527379 1.5020002
0.69563836 -0.27483562 1.5024377
0.70539063 -0.27513236 1.5020002
0.71438009 -0.27473697 1.5048
0.73991019 -0.62189585 1.5150001
0.73991019 -0.61791784 1.5150001
0.60730982 -0.55692166 1.5150001
0.61579627 -0.55639124 1.5150002
0.6179179 -0.54631364 1.5150001
0.62145388 -0.54366159 1.5150001
0.63416135 -0.4952625 1.5150002
0.63648188 -0.48531744 1.5150001
