# .PCD v0.7 - Point Cloud Data file format
VERSION 0.7
FIELDS x y z
SIZE 4 4 4
TYPE F F F
COUNT 1 1 1
WIDTH 1495
HEIGHT 1
VIEWPOINT 0 0 0 1 0 0 0
POINTS 1495
DATA ascii
0.14578865 0.44512066 1.7720001
0.21465051 0.44450027 1.7720002
0.22488678 0.4451206 1.7719998
0.23574337 0.44512066 1.7720001
0.24349809 0.44512063 1.7720002
0.26745152 0.44529301 1.7720002
0.27651104 0.44356975 1.7720003
0.45287541 0.44822258 1.7720001
0.59401119 0.44046783 1.7720001
0.69792444 0.44356972 1.7720001
-0.11166791 0.45597729 1.7720001
-0.10391319 0.45597729 1.7720002
-0.015509431 0.45597729 1.7720002
-0.006203773 0.45597729 1.7720002
0.13958488 0.45287541 1.7720001
0.14702941 0.45473653 1.7720002
0.22488678 0.45597732 1.7720001
0.23574336 0.45597729 1.7720002
0.24349807 0.45597732 1.7720002
0.26831317 0.45287541 1.7720001
0.44977352 0.45287541 1.7720001
0.4549433 0.4549433 1.7720002
-0.10236225 0.46218106 1.7720001
-0.02481509 0.46528292 1.7720002
-0.01550943 0.46528292 1.7720002
0.22643772 0.46450749 1.7720002
0.23574336 0.46528292 1.7720002
0.24401507 0.46528292 1.7720002
0.60564333 0.46760938 1.7720001
-0.016543396 0.47407162 1.7720002
0.22798866 0.4745886 1.7720002
0.23574336 0.4745886 1.7720002
0.24298111 0.47252068 1.7720001
0.59594989 0.4742009 1.7720002
0.60398161 0.4741455 1.7720003
-0.016543394 0.48182636 1.7720001
0.23574336 0.48389426 1.7720002
0.24349807 0.48234332 1.7720001
0.59711313 0.48389426 1.7720001
0.60409236 0.48234332 1.7720001
0.17680752 0.49940369 1.7720001
0.23546137 0.49517387 1.7720001
0.24318789 0.49382028 1.7720002
0.25590563 0.4963018 1.7720001
0.20472449 0.50870937 1.7720001
0.22488678 0.50560749 1.7720002
0.23574336 0.50560749 1.7720001
0.24401507 0.50767541 1.7720001
0.25590563 0.5071584 1.7720001
0.26676223 0.50560749 1.7720001
0.19852072 0.51801503 1.7720001
0.20410411 0.51615393 1.7720002
0.22100939 0.51491314 1.7720001
0.19748676 0.5231849 1.7720001
0.20317355 0.52111691 1.7720001
0.22023392 0.52111691 1.7720001
0.31846032 0.54489803 1.7720001
0.32569805 0.54593205 1.7720002
-0.48565912 0.19675776 1.7810001
-0.32451808 0.19442743 1.7810001
-0.30686495 0.19329374 1.7810003
-0.48521832 0.20548089 1.7810001
-0.47343603 0.20487353 1.7810003
-0.46452847 0.20576428 1.7810001
-0.44894028 0.20576429 1.7810001
-0.30241114 0.20576429 1.7810001
-0.44816086 0.21511722 1.7810001
-0.42212859 0.21574073 1.7810001
-0.41464624 0.2151172 1.7810001
-0.54324889 0.22524954 1.7810001
-0.53935182 0.22447014 1.7810001
-0.50817543 0.22447014 1.7810001
-0.47154313 0.22447014 1.7810001
-0.46639904 0.2238466 1.7810001
-0.44671339 0.22491552 1.7810003
-0.43023443 0.22602895 1.7810001
-0.4231084 0.22491553 1.7810003
-0.41464624 0.22447014 1.7810001
-0.40716386 0.22447014 1.7810001
-0.32111698 0.22447014 1.7810001
-0.54434007 0.23507011 1.7810001
-0.53810483 0.2344466 1.7810001
-0.52688128 0.23382306 1.7810001
-0.49882251 0.23226424 1.7810001
-0.47076374 0.23070541 1.7810001
-0.46764612 0.23070541 1.7810001
-0.44582263 0.23382303 1.7810001
-0.43491089 0.23382306 1.7810001
-0.42399913 0.23382306 1.7810001
-0.41503593 0.23343335 1.7810001
-0.40685213 0.23070541 1.7810001
-0.38658744 0.2369407 1.7810001
-0.32298756 0.23382306 1.7810001
-0.55182242 0.24005833 1.7810001
-0.54558712 0.24473481 1.7810001
-0.53779304 0.24473479 1.7810001
-0.49601665 0.24567008 1.7810001
-0.48669836 0.24525441 1.7810001
-0.45413631 0.24525438 1.7810001
-0.44582266 0.24473481 1.7810001
-0.43491089 0.24473481 1.7810001
-0.42399916 0.24473481 1.7810001
-0.41568547 0.2452544 1.7810001
-0.40685213 0.24941126 1.7810001
-0.39905801 0.24941126 1.7810001
-0.38391522 0.24317598 1.7810003
-0.33046991 0.24317598 1.7810001
-0.32267582 0.24239656 1.7810001
-0.31459829 0.24430965 1.7810001
-0.30552882 0.24473479 1.7810001
-0.54454792 0.25460732 1.7810001
-0.53712493 0.25609192 1.7810003
-0.52064598 0.25720537 1.7810001
-0.51441073 0.25876421 1.7810001
-0.50505781 0.25564656 1.7810001
-0.49414608 0.25564653 1.7810001
-0.48521829 0.25536311 1.7810001
-0.47388139 0.25564653 1.7810001
-0.4645285 0.25564653 1.7810001
-0.45517552 0.25564653 1.7810001
-0.44582263 0.25564656 1.7810001
-0.43491089 0.25564656 1.7810001
-0.42399916 0.25564653 1.7810001
-0.41464624 0.25564653 1.7810001
-0.40529332 0.25564653 1.7810001
-0.39638579 0.25653729 1.7810003
-0.54402828 0.26344064 1.7810001
-0.53578877 0.26410872 1.7810003
-0.52546418 0.26528287 1.7810001
-0.51480043 0.26460972 1.7810001
-0.50505781 0.26188183 1.7810001
-0.49258724 0.26188183 1.7810001
-0.4845705 0.26455411 1.7810003
-0.47310197 0.26733768 1.7810001
-0.4645285 0.26499945 1.7810001
-0.45517555 0.26499945 1.7810001
-0.44582263 0.26499945 1.7810001
-0.43505263 0.26499945 1.7810001
-0.42399916 0.26499945 1.7810001
-0.41464624 0.26499948 1.7810001
-0.40529329 0.26499945 1.7810001
-0.39594036 0.26499948 1.7810001
-0.38658744 0.2681171 1.7810001
-0.37723452 0.2681171 1.7810001
0.22239171 0.26707789 1.7810001
-0.55182242 0.27435237 1.7810001
-0.54870474 0.27435237 1.7810001
-0.53311658 0.27123475 1.7810001
-0.52489734 0.27406895 1.7810001
-0.51628131 0.2743524 1.7810001
-0.48011667 0.27279356 1.7810001
-0.47427112 0.27396265 1.7810001
-0.46530789 0.27201414 1.7810001
-0.4582932 0.27123475 1.7810001
-0.44582266 0.27123475 1.7810001
-0.43369848 0.27365956 1.7810001
-0.42399916 0.27435237 1.7810001
-0.41464624 0.27435237 1.7810001
-0.40618408 0.27479777 1.7810003
-0.39594036 0.2743524 1.7810001
-0.38783452 0.27497593 1.7810001
0.22291131 0.27123475 1.7810001
-0.5125401 0.28495237 1.7810001
-0.50544751 0.28721264 1.7810001
-0.43335205 0.28136706 1.7810001
-0.42330635 0.28405169 1.7810001
-0.41436279 0.284839 1.7810001
-0.40529332 0.28526413 1.7810001
-0.39594039 0.28526413 1.7810001
-0.38534045 0.28557593 1.7810003
-0.37456229 0.28771371 1.7810003
-0.3678816 0.2899406 1.7810001
-0.35407493 0.28682294 1.7810003
0.17458789 0.28619942 1.7810001
0.24941126 0.2899406 1.7810001
-0.51402098 0.29617587 1.7810001
-0.50505781 0.2957305 1.7810003
-0.42088151 0.29305822 1.7810001
-0.38222274 0.29555234 1.7810001
-0.3741169 0.29617587 1.7810001
-0.36663458 0.29679939 1.7810001
-0.35437185 0.29513663 1.7810001
0.15666145 0.2985141 1.7810001
0.16523495 0.29617587 1.7810001
0.17271729 0.29555234 1.7810001
0.23343334 0.29656556 1.7810001
0.24941127 0.2961759 1.7810001
-0.5125401 0.30490524 1.7810001
-0.50544751 0.30552879 1.7810001
-0.3741169 0.30552879 1.7810001
-0.36476398 0.30552879 1.7810001
-0.35541105 0.30552879 1.7810001
-0.34917575 0.30864644 1.7810001
0.13405855 0.30428171 1.7810001
0.1469745 0.30508342 1.7810003
0.15588205 0.30552879 1.7810001
0.16289672 0.30552879 1.7810001
0.23421276 0.30552879 1.7810001
0.24495749 0.30641955 1.7810003
-0.50443429 0.31550524 1.7810001
-0.41375548 0.31443635 1.7810003
-0.40568301 0.31527144 1.7810001
-0.39594036 0.31644052 1.7810001
-0.38381621 0.31557456 1.7810001
-0.37411687 0.31488171 1.7810001
-0.36476398 0.31488171 1.7810001
-0.35541105 0.31488171 1.7810001
-0.34917575 0.31644052 1.7810001
0.086254731 0.31696016 1.7810001
0.09508805 0.31644055 1.7810001
0.11223507 0.3133229 1.7810001
0.12782326 0.31644052 1.7810001
0.13405855 0.31577247 1.7810003
0.14511201 0.3151651 1.7810001
0.15525851 0.31550524 1.7810001
0.19952901 0.31799936 1.7810001
0.20264664 0.31644052 1.7810001
0.22447014 0.3156611 1.7810001
0.23421276 0.31527144 1.7810001
0.24459311 0.31488171 1.7810001
0.25252891 0.31488171 1.7810001
0.51441073 0.31799936 1.7810001
0.52532244 0.31488171 1.7810001
0.55404931 0.31488171 1.7810003
0.56325376 0.31592092 1.7810001
-0.41152859 0.32423466 1.7810001
-0.40529332 0.32423463 1.7810001
-0.39718744 0.32298756 1.7810001
-0.38346982 0.32111698 1.7810001
-0.37349334 0.32236406 1.7810001
-0.364764 0.3233439 1.7810003
-0.35541102 0.32423463 1.7810001
-0.34761691 0.32501405 1.7810001
-0.30552879 0.32111698 1.7810001
0.054558713 0.32735229 1.7810001
0.084176302 0.32267582 1.7810001
0.095711574 0.32361111 1.7810001
0.10599978 0.32735229 1.7810001
0.11535271 0.32423463 1.7810001
0.12470564 0.32423463 1.7810001
0.13366884 0.32462436 1.7810001
0.1449703 0.32423466 1.7810001
0.15276439 0.32111698 1.7810001
0.16523497 0.32111698 1.7810001
0.17770553 0.32267582 1.7810001
0.18305005 0.32468003 1.7810003
0.19485256 0.32423466 1.7810001
0.20537458 0.32462436 1.7810001
0.21511722 0.32579345 1.7810001
0.22447014 0.32548171 1.7810001
0.23382306 0.32423463 1.7810001
0.24442302 0.3245464 1.7810001
0.2547558 0.32468 1.7810003
0.26499948 0.32735229 1.7810001
0.27279356 0.32735229 1.7810001
0.50609702 0.32319543 1.7810001
0.51493031 0.32527387 1.7810001
-0.41152859 0.33462676 1.7810001
-0.40217566 0.33046991 1.7810001
-0.39905801 0.33046991 1.7810001
-0.35385224 0.33358759 1.7810001
-0.34605813 0.33528811 1.7810001
-0.33601236 0.33739799 1.7810001
-0.32111698 0.33826402 1.7810001
-0.31176406 0.33826402 1.7810001
-0.30552879 0.33826402 1.7810001
-0.29929352 0.33826402 1.7810001
0.035852868 0.33670521 1.7810001
0.045205794 0.33358759 1.7810001
0.054039106 0.33150911 1.7810001
0.098205686 0.33046991 1.7810001
0.10911743 0.33670521 1.7810001
0.11535271 0.33514637 1.7810001
0.12470564 0.3351464 1.7810001
0.13377513 0.33472127 1.7810001
0.14528207 0.33483464 1.7810003
0.15380362 0.33878362 1.7810001
0.16523495 0.33670521 1.7810001
0.18498002 0.33462676 1.7810001
0.19672315 0.33483458 1.7810001
0.20472507 0.33566597 1.7810001
0.22602895 0.33202875 1.7810001
0.23410648 0.33472127 1.7810001
0.24473481 0.33514637 1.7810001
0.25592998 0.33472124 1.7810001
0.26499948 0.3351464 1.7810001
0.27406898 0.33472124 1.7810001
0.28483897 0.3369886 1.7810001
0.29617587 0.33670521 1.7810001
0.30241114 0.33514637 1.7810001
0.51378715 0.33452281 1.7810001
0.53623426 0.3351464 1.7810001
-0.35229343 0.34605813 1.7810001
-0.34605813 0.34605816 1.7810001
-0.33576992 0.34668162 1.7810001
-0.32319543 0.34605813 1.7810001
-0.30241114 0.34294048 1.7810001
0.11535271 0.34294048 1.7810001
0.12782326 0.34294048 1.7810001
0.13094091 0.34294048 1.7810001
0.14964676 0.34605813 1.7810001
0.15543666 0.3460581 1.7810003
0.16461143 0.34792873 1.7810001
0.17147024 0.34917575 1.7810001
0.19952901 0.34294048 1.7810001
0.20576429 0.34605816 1.7810001
0.21574076 0.34792873 1.7810001
0.2238466 0.34792867 1.7810001
0.23382303 0.3460581 1.7810001
0.24317595 0.34605813 1.7810001
0.25720537 0.3460581 1.7810001
0.26460975 0.34566844 1.7810001
0.27396268 0.3464478 1.7810001
0.28647652 0.34675092 1.7810001
0.29578614 0.34566841 1.7810001
0.48724273 0.34650356 1.7810003
0.51441073 0.34294051 1.7810001
-0.34566844 0.35502133 1.7810001
-0.33608165 0.35291693 1.7810001
-0.012470563 0.35852867 1.7810001
-0.0062352819 0.35696989 1.7810001
0.14704873 0.35489142 1.7810001
0.15588205 0.35496566 1.7810003
0.16523495 0.35541102 1.7810001
0.17334081 0.35665807 1.7810001
0.1839408 0.35665807 1.7810001
0.19578785 0.35572281 1.7810001
0.20576429 0.35541105 1.7810001
0.21511722 0.3550213 1.7810001
0.22447014 0.35541102 1.7810001
0.23319952 0.35354045 1.7810001
0.24356568 0.35502136 1.7810001
0.25720537 0.35541105 1.7810001
0.26312885 0.35541102 1.7810001
0.27524313 0.35585645 1.7810003
0.28548682 0.35674721 1.7810003
0.29669547 0.35541102 1.7810001
0.49508134 0.35603455 1.7810001
0.5533812 0.35541105 1.7810001
0.62387455 0.35541102 1.7810001
0.63724577 0.35416397 1.7810001
0.64431238 0.35645026 1.7810001
0.65574378 0.35645026 1.7810001
-0.34294048 0.36164632 1.7810001
-0.033670519 0.36663458 1.7810001
-0.025720535 0.36710221 1.7810001
-0.015588203 0.36476395 1.7810001
-0.0062352819 0.36164635 1.7810001
0.1461827 0.36511037 1.7810001
0.15588203 0.36476398 1.7810001
0.16478959 0.36431858 1.7810003
0.17521141 0.36289337 1.7810001
0.18394081 0.36320516 1.7810001
0.19485255 0.36320516 1.7810001
0.20576429 0.36320516 1.7810001
0.24473479 0.36476398 1.7810001
0.25720534 0.36476398 1.7810001
0.26499945 0.36476398 1.7810001
0.2743524 0.36476395 1.7810001
0.28526413 0.36476398 1.7810001
0.29461706 0.36476398 1.7810001
0.47699904 0.36164632 1.7810001
0.48479313 0.36164632 1.7810001
0.49570489 0.36164632 1.7810001
0.50505781 0.36320513 1.7810001
0.51480043 0.36437428 1.7810001
0.52420902 0.3661001 1.7810003
0.5362342 0.36632282 1.7810001
0.54558712 0.36476395 1.7810001
0.55182242 0.36164632 1.7810001
0.60586154 0.36528358 1.7810001
0.61378556 0.36437428 1.7810001
0.62391782 0.36437425 1.7810001
0.63911635 0.36476398 1.7810001
0.64846927 0.3678816 1.7810001
0.65158689 0.36476398 1.7810001
0.6650967 0.36580318 1.7810001
-0.2899406 0.37723452 1.7810001
-0.065470457 0.37645513 1.7810001
-0.03429405 0.37099928 1.7810001
-0.024050372 0.3736715 1.7810003
-0.018705845 0.3741169 1.7810001
0.12470564 0.37723455 1.7810001
0.13494931 0.37456223 1.7810003
0.1449703 0.37411687 1.7810001
0.15588205 0.37411693 1.7810003
0.16336438 0.37474039 1.7810001
0.24317598 0.37500766 1.7810003
0.25653729 0.37411693 1.7810003
0.26375243 0.37286982 1.7810001
0.27123475 0.37255806 1.7810001
0.28647652 0.37377051 1.7810001
0.29461706 0.3741169 1.7810001
0.48635197 0.37723452 1.7810001
0.49492547 0.37333748 1.7810001
0.50461245 0.37500766 1.7810003
0.51441073 0.37500766 1.7810003
0.52532244 0.3741169 1.7810001
0.53667963 0.3736715 1.7810003
0.54496354 0.37536395 1.7810001
0.55805767 0.37099925 1.7810001
0.60638112 0.37255806 1.7810001
0.6141752 0.37255806 1.7810001
0.6266458 0.37411687 1.7810001
0.63599873 0.3741169 1.7810001
0.64846927 0.37099925 1.7810001
0.65509427 0.3737272 1.7810001
0.66405749 0.37411687 1.7810001
0.6745441 0.37383345 1.7810001
0.68588102 0.37536395 1.7810001
0.69523388 0.37723452 1.7810001
0.70146918 0.37723452 1.7810001
-0.29430529 0.38596392 1.7810001
-0.28744647 0.38534042 1.7810001
-0.082617477 0.38658744 1.7810001
-0.07482338 0.38502866 1.7810001
-0.065025076 0.38257912 1.7810003
-0.021823484 0.38035217 1.7810001
-0.018705845 0.38035217 1.7810001
0.12782326 0.38346982 1.7810001
0.13405855 0.38346982 1.7810001
0.1462457 0.38403669 1.7810001
0.15588205 0.38545379 1.7810001
0.16495155 0.3846035 1.7810001
0.22447014 0.38814628 1.7810001
0.23694071 0.38658747 1.7810001
0.24286421 0.38409334 1.7810001
0.25627008 0.38534042 1.7810001
0.26188183 0.38191098 1.7810001
0.28682297 0.3850286 1.7810001
0.29461706 0.38502866 1.7810001
0.30597419 0.3874782 1.7810003
0.31488171 0.38814625 1.7810001
0.32215619 0.38866588 1.7810001
0.47457421 0.38624105 1.7810001
0.48385784 0.38502863 1.7810001
0.49414608 0.38450903 1.7810001
0.5058372 0.38113159 1.7810001
0.51480043 0.3830801 1.7810001
0.52532244 0.38502863 1.7810001
0.53595078 0.3846035 1.7810001
0.54402828 0.38346982 1.7810001
0.55182242 0.38658744 1.7810001
0.58455765 0.38191098 1.7810001
0.60793996 0.38035217 1.7810001
0.6145649 0.3869772 1.7810001
0.62560654 0.38658747 1.7810001
0.64743006 0.38554823 1.7810001
0.65470457 0.38502869 1.7810001
0.66377407 0.3846035 1.7810001
0.67397726 0.38346982 1.7810001
0.68484181 0.38139138 1.7810001
0.69211626 0.38035217 1.7810001
0.70146918 0.38035217 1.7810001
0.14964676 0.39282274 1.7810001
0.15692125 0.39386195 1.7810001
0.1639879 0.39531684 1.7810001
0.22571719 0.39656389 1.7810001
0.23382306 0.39594036 1.7810001
0.243176 0.39638576 1.7810003
0.25564653 0.39438155 1.7810001
0.28682294 0.39594036 1.7810001
0.29492882 0.39531684 1.7810001
0.30513909 0.39633006 1.7810001
0.31449202 0.39555067 1.7810001
0.32267582 0.39438155 1.7810001
0.47699904 0.39282274 1.7810001
0.48946959 0.39594036 1.7810001
0.49362645 0.39490116 1.7810001
0.51441073 0.39749917 1.7810001
0.52653486 0.39663321 1.7810001
0.53311658 0.39282274 1.7810001
0.55494004 0.39905801 1.7810001
0.62508696 0.39905801 1.7810001
0.63443989 0.39905801 1.7810001
0.65470457 0.39360213 1.7810001
0.66316676 0.39594039 1.7810003
0.67185163 0.39438155 1.7810001
0.70503223 0.39683113 1.7810003
-0.081058659 0.40529329 1.7810001
0.22634073 0.40466976 1.7810001
0.232576 0.40654036 1.7810001
0.24379949 0.40716386 1.7810001
0.27747005 0.40529332 1.7810001
0.28526413 0.40529332 1.7810001
0.29669547 0.40633255 1.7810001
0.30513909 0.40529326 1.7810001
0.31488171 0.40373448 1.7810001
0.51596951 0.40529329 1.7810001
0.52599049 0.40573871 1.7810003
0.53545481 0.40763152 1.7810001
0.54558712 0.40841094 1.7810001
0.55431646 0.40654036 1.7810001
0.56117535 0.40841094 1.7810001
0.57364589 0.40841094 1.7810001
0.66405749 0.40217566 1.7810001
0.67029274 0.40373448 1.7810001
0.22758777 0.4130874 1.7810001
0.23421276 0.41425654 1.7810001
0.24317598 0.41464627 1.7810001
0.25252891 0.41152859 1.7810001
0.27539161 0.41568542 1.7810001
0.28526413 0.41464624 1.7810001
0.29617587 0.41420084 1.7810003
0.30513906 0.41464624 1.7810001
0.51441073 0.41464624 1.7810003
0.54558712 0.41152859 1.7810001
0.56429297 0.41464621 1.7810001
0.57364589 0.41464624 1.7810001
0.67756724 0.41464624 1.7810001
0.68666041 0.41464621 1.7810001
0.69211626 0.4130874 1.7810001
0.2452544 0.42192072 1.7810001
0.26499945 0.42711681 1.7810001
0.2743524 0.42444456 1.7810003
0.28526413 0.42399916 1.7810001
0.56637144 0.42295992 1.7810001
0.57239884 0.42337561 1.7810001
0.6266458 0.42275211 1.7810001
0.26624653 0.43397561 1.7810001
0.27357298 0.43101382 1.7810001
0.6266458 0.43023443 1.7810001
0.2681171 0.44270498 1.7810001
-0.31490624 0.11593562 1.7900003
-0.49664313 0.13786939 1.7900001
-0.48567626 0.134736 1.7900001
-0.50134325 0.14100279 1.7900001
-0.49507648 0.14256948 1.7900002
-0.48567626 0.14413618 1.7900002
-0.4527756 0.14726958 1.7900001
-0.41047478 0.14726958 1.7900001
-0.40577468 0.14726958 1.7900001
-0.50134325 0.15666977 1.7900001
-0.49476314 0.1560431 1.7900002
-0.48724294 0.15510306 1.7900001
-0.47188935 0.1560431 1.7900002
-0.46374249 0.15510306 1.7900002
-0.45434231 0.15510306 1.7900003
-0.44494212 0.15823646 1.7900001
-0.42927516 0.15980315 1.7900001
-0.41047478 0.15510306 1.7900001
-0.4051033 0.15622215 1.7900002
-0.3979412 0.15980315 1.7900001
-0.52466959 0.16641812 1.7900001
-0.5138768 0.16920334 1.7900002
-0.50134325 0.16606995 1.7900002
-0.49507645 0.16606994 1.7900001
-0.48567629 0.16606995 1.7900001
-0.47493321 0.16606995 1.7900002
-0.46335083 0.16646163 1.7900001
-0.45434231 0.16606994 1.7900001
-0.44494212 0.16646162 1.7900001
-0.43616864 0.16669662 1.7900002
-0.42614174 0.16763663 1.7900002
-0.41454822 0.16669665 1.7900002
-0.404208 0.16606994 1.7900001
-0.39570305 0.16651759 1.7900002
-0.10653543 0.16502547 1.7900002
-0.52421707 0.17609681 1.7900002
-0.51450348 0.17359009 1.7900002
-0.50134325 0.17547014 1.7900002
-0.49507645 0.17547013 1.7900001
-0.48567629 0.17547013 1.7900001
-0.4750227 0.17547014 1.7900002
-0.46335083 0.17547013 1.7900001
-0.45329785 0.17442569 1.7900002
-0.44441992 0.17442569 1.7900002
-0.43366191 0.17609681 1.7900002
-0.42614174 0.17507845 1.7900001
-0.41405579 0.17457488 1.7900002
-0.404208 0.17547013 1.7900001
-0.39480782 0.17547014 1.7900001
-0.38697433 0.17860353 1.7900001
-0.37600744 0.17860353 1.7900002
-0.32497787 0.17591777 1.7900002
-0.31856185 0.1765146 1.7900002
-0.53476614 0.1859148 1.7900002
-0.5247013 0.18515518 1.7900003
-0.50212657 0.18565367 1.7900001
-0.49507645 0.18487033 1.7900001
-0.48567629 0.18487033 1.7900001
-0.47470939 0.18487033 1.7900003
-0.46374246 0.18487033 1.7900001
-0.45389467 0.18576558 1.7900002
-0.44494212 0.18487032 1.7900001
-0.4346467 0.1844227 1.7900002
-0.42927516 0.18487033 1.7900002
-0.404208 0.18173692 1.7900001
-0.39324111 0.18487033 1.7900002
-0.38603431 0.185497 1.7900002
-0.37600744 0.18487032 1.7900001
-0.34467348 0.18643701 1.7900001
-0.32587311 0.18173692 1.7900002
-0.53581065 0.19427051 1.7900001
-0.52484369 0.19427049 1.7900003
-0.5138768 0.19466218 1.7900001
-0.50447667 0.19382289 1.7900002
-0.49597174 0.19382289 1.7900002
-0.48515409 0.19374828 1.7900002
-0.47470936 0.19427049 1.7900003
-0.46374246 0.19427051 1.7900001
-0.45434231 0.19427051 1.7900001
-0.44494212 0.19427049 1.7900001
-0.43554196 0.19427049 1.7900001
-0.42666396 0.19531497 1.7900002
-0.41584632 0.19606103 1.7900002
-0.39292777 0.19364382 1.7900002
-0.3854076 0.19427051 1.7900001
-0.37600744 0.19427052 1.7900002
-0.36504054 0.19427052 1.7900003
-0.53581059 0.20523737 1.7900003
-0.52484369 0.2052374 1.7900004
-0.51387686 0.20523742 1.7900003
-0.50604337 0.20523739 1.7900002
-0.4961209 0.20367071 1.7900002
-0.48254287 0.20993748 1.7900001
-0.47784275 0.20993748 1.7900001
-0.46060914 0.20367071 1.7900002
-0.45434231 0.20367071 1.7900002
-0.44494209 0.20523739 1.7900003
-0.43554199 0.20523742 1.7900003
-0.42614174 0.20523739 1.7900003
-0.41517484 0.20523736 1.7900004
-0.404208 0.20523742 1.7900003
-0.3944945 0.20555075 1.7900002
-0.38540763 0.20501357 1.7900002
-0.37600741 0.20523739 1.7900003
-0.53581059 0.21620427 1.7900001
-0.52484375 0.21620427 1.7900003
-0.5138768 0.21620427 1.7900001
-0.50604331 0.21620429 1.7900002
-0.44455042 0.21620429 1.7900001
-0.43554196 0.21620427 1.7900001
-0.4284918 0.21542093 1.7900001
-0.41047478 0.21620429 1.7900002
-0.404208 0.21620429 1.7900001
-0.39480782 0.21620427 1.7900001
-0.38619095 0.21855432 1.7900001
-0.37475407 0.21683095 1.7900002
0.16920334 0.21620427 1.7900001
0.17755906 0.21515982 1.7900002
-0.53581059 0.22560446 1.7900001
-0.52484369 0.22560444 1.7900003
-0.51426846 0.22560444 1.7900001
-0.50604331 0.22560446 1.7900002
-0.44306207 0.22497778 1.7900002
-0.43643722 0.22515683 1.7900002
-0.42927516 0.22403777 1.7900001
-0.40331277 0.22560446 1.7900002
-0.39480782 0.22560446 1.7900001
-0.3854076 0.22560446 1.7900001
-0.37600744 0.22649971 1.7900002
-0.36504054 0.22560444 1.7900001
0.084601671 0.22560444 1.7900001
0.17484346 0.22372441 1.7900002
0.18424365 0.22435109 1.7900002
0.19322604 0.22664893 1.7900002
0.22403777 0.22560444 1.7900002
-0.53491539 0.23455703 1.7900002
-0.52441645 0.23500463 1.7900003
-0.5138768 0.23500466 1.7900001
-0.50604331 0.23500465 1.7900001
-0.41151926 0.23709357 1.7900002
-0.40381634 0.23539633 1.7900001
-0.39480779 0.23500463 1.7900001
-0.38501593 0.23461297 1.7900001
-0.37600744 0.23500463 1.7900001
-0.36817396 0.23500466 1.7900002
-0.35282031 0.23563133 1.7900002
0.087735064 0.23187125 1.7900001
0.14335284 0.23735468 1.7900001
0.34467348 0.23500465 1.7900001
-0.53424382 0.24440484 1.7900002
-0.52484369 0.24440485 1.7900003
-0.5138768 0.24440485 1.7900001
-0.50604331 0.24440484 1.7900002
-0.41395631 0.24510117 1.7900001
-0.404208 0.24440485 1.7900001
-0.39480782 0.24440485 1.7900001
-0.38384092 0.24440482 1.7900001
-0.37600744 0.24440482 1.7900001
-0.36705488 0.24485248 1.7900002
-0.29140577 0.24753822 1.7900001
-0.28576565 0.24565819 1.7900002
0.14413618 0.24440482 1.7900001
0.15165633 0.24377814 1.7900002
0.19382288 0.24485248 1.7900002
0.20053729 0.24440482 1.7900001
0.25380501 0.24440484 1.7900002
0.28513896 0.24440482 1.7900001
-0.54729974 0.25589395 1.7900002
-0.53424394 0.25380504 1.7900002
-0.52498615 0.25352019 1.7900003
-0.51477212 0.25335741 1.7900002
-0.50604331 0.25067163 1.7900001
-0.40420797 0.25067163 1.7900001
-0.39436021 0.25290978 1.7900002
-0.3854076 0.25380501 1.7900001
-0.37600747 0.25380504 1.7900001
-0.36535388 0.25411838 1.7900002
-0.30237263 0.25537169 1.7900001
-0.29297245 0.25067163 1.7900001
0.10966884 0.2569384 1.7900001
0.1410028 0.25380501 1.7900002
0.19427051 0.25380504 1.7900001
0.21620427 0.2569384 1.7900002
0.22560446 0.2569384 1.7900002
0.2339602 0.25589395 1.7900002
0.25380501 0.25380504 1.7900001
0.26242185 0.25615504 1.7900001
0.28513896 0.2569384 1.7900001
0.29558361 0.25589395 1.7900002
0.36974064 0.2569384 1.7900001
0.41360816 0.2569384 1.7900001
-0.54834414 0.26007181 1.7900001
-0.53267717 0.26007181 1.7900001
-0.52745485 0.2611163 1.7900002
-0.48254287 0.26320523 1.7900002
-0.47717136 0.26320517 1.7900002
-0.43554193 0.26633859 1.7900001
-0.3916744 0.26477191 1.7900001
-0.38512278 0.2643446 1.7900003
-0.37572259 0.2643446 1.7900003
-0.36504054 0.26477191 1.7900004
-0.35720706 0.26633859 1.7900001
0.10810214 0.26163852 1.7900001
0.1284692 0.2632052 1.7900001
0.14100279 0.26163852 1.7900001
0.19635944 0.26372743 1.7900002
0.20471515 0.26738307 1.7900001
0.21486141 0.26320523 1.7900002
0.22630075 0.26355335 1.7900001
0.2339602 0.26372743 1.7900002
0.25380504 0.26477194 1.7900003
0.2644586 0.26466748 1.7900006
0.27573881 0.269472 1.7900002
0.28553063 0.26438022 1.7900001
0.29453915 0.26477194 1.7900003
0.30393934 0.2632052 1.7900001
0.31333953 0.2632052 1.7900001
0.32587311 0.2632052 1.7900001
0.33475107 0.26738307 1.7900002
0.3440468 0.26759195 1.7900002
0.35564038 0.26477191 1.7900001
0.36603755 0.26633859 1.7900003
0.37496296 0.2645978 1.7900001
0.41360816 0.26163852 1.7900001
-0.40420797 0.27417207 1.7900001
-0.3916744 0.27260539 1.7900001
-0.38384092 0.27573878 1.7900002
-0.37600747 0.27573878 1.7900001
-0.3650406 0.27573878 1.7900003
-0.3196063 0.27573878 1.7900001
0.10966884 0.27887216 1.7900001
0.11906902 0.27887216 1.7900001
0.12533581 0.27887219 1.7900002
0.13160262 0.27573878 1.7900002
0.14100279 0.27260539 1.7900001
0.15980315 0.27887216 1.7900001
0.16659218 0.27626103 1.7900002
0.17609681 0.2776188 1.7900002
0.18330362 0.27887216 1.7900001
0.19740389 0.27573878 1.7900002
0.20523739 0.27573881 1.7900003
0.21307087 0.27573878 1.7900002
0.22605208 0.27663407 1.7900002
0.23539633 0.27613047 1.7900001
0.25380501 0.27573878 1.7900001
0.26477191 0.27573878 1.7900003
0.27573878 0.27573878 1.7900001
0.28513896 0.27573878 1.7900001
0.29453912 0.27573878 1.7900001
0.30289489 0.27678323 1.7900002
0.31490621 0.27887216 1.7900001
0.32665646 0.27808881 1.7900001
0.33475107 0.27573878 1.7900002
0.36546782 0.27545395 1.7900003
0.37444076 0.27573878 1.7900002
0.38227421 0.27573878 1.7900001
0.42692509 0.27573878 1.7900001
-0.38227421 0.28200558 1.7900001
-0.37538075 0.28325891 1.7900002
-0.36504054 0.28513896 1.7900003
0.10966884 0.28513896 1.7900002
0.15549472 0.28553063 1.7900001
0.16544327 0.28325891 1.7900002
0.17547014 0.28200558 1.7900001
0.18576559 0.28469133 1.7900002
0.19466217 0.28553063 1.7900001
0.20419294 0.28305006 1.7900002
0.22560446 0.28513899 1.7900001
0.23539633 0.2847473 1.7900001
0.24377814 0.28576565 1.7900002
0.25380504 0.28513899 1.7900001
0.26477191 0.28513896 1.7900003
0.27534711 0.28553063 1.7900001
0.28474727 0.2847473 1.7900001
0.29453915 0.28513896 1.7900001
0.30393937 0.28513896 1.7900001
0.31490624 0.28513896 1.7900003
0.32587311 0.28513899 1.7900001
0.3348816 0.28513896 1.7900001
0.37444073 0.28200558 1.7900001
0.38540766 0.2838856 1.7900002
-0.50761002 0.29767254 1.7900001
-0.36399609 0.29453918 1.7900002
0.14413619 0.29453915 1.7900001
0.15467577 0.2942543 1.7900003
0.16502549 0.29506141 1.7900002
0.17860353 0.29610586 1.7900001
0.18526199 0.29493082 1.7900001
0.19387883 0.29414746 1.7900001
0.21933767 0.29453915 1.7900002
0.22521278 0.29414749 1.7900001
0.23578799 0.29218912 1.7900001
0.24440482 0.29453915 1.7900001
0.25537175 0.29453915 1.7900002
0.26477188 0.29453915 1.7900003
0.27678326 0.29245025 1.7900002
0.28513899 0.29453915 1.7900001
0.29453915 0.29453912 1.7900001
0.30393934 0.29453912 1.7900001
0.31490624 0.29453915 1.7900003
0.32587311 0.29453915 1.7900001
0.3348816 0.29414746 1.7900001
0.36660725 0.29328582 1.7900002
0.37757415 0.29767254 1.7900001
0.38540763 0.29543442 1.7900002
0.41830826 0.29767254 1.7900001
0.42509729 0.29558361 1.7900002
0.5550586 0.29364392 1.7900002
0.5640111 0.29453915 1.7900001
0.57262796 0.29688919 1.7900001
0.58803385 0.29662809 1.7900002
-0.50604331 0.30393934 1.7900001
-0.36190712 0.30080593 1.7900001
-0.35720706 0.30080593 1.7900001
0.16841999 0.30393934 1.7900001
0.17586181 0.304331 1.7900001
0.18487033 0.30393934 1.7900001
0.19427049 0.30393934 1.7900001
0.202104 0.30707273 1.7900001
0.21745764 0.30519271 1.7900002
0.22521277 0.304331 1.7900001
0.23187125 0.30707273 1.7900001
0.24485247 0.30304408 1.7900002
0.25537175 0.30393934 1.7900002
0.26434463 0.30422419 1.7900003
0.27678323 0.30498379 1.7900002
0.28513899 0.30393934 1.7900001
0.29453912 0.30393934 1.7900001
0.30393934 0.30393934 1.7900001
0.31476378 0.30365449 1.7900003
0.32587311 0.30354768 1.7900001
0.33527327 0.30393934 1.7900001
0.34154007 0.30550605 1.7900001
0.39637449 0.30707273 1.7900001
0.41830826 0.30393934 1.7900002
0.42457503 0.3047227 1.7900001
0.43491527 0.30581939 1.7900002
0.55774432 0.30393934 1.7900001
0.56440282 0.30393934 1.7900001
0.57455081 0.30422419 1.7900003
-0.50447661 0.3196063 1.7900001
0.094001859 0.31333953 1.7900002
0.15745312 0.31568956 1.7900001
0.16794997 0.31333953 1.7900002
0.17547014 0.31490624 1.7900003
0.18487033 0.31490624 1.7900003
0.19427052 0.31490624 1.7900003
0.20583998 0.3140626 1.7900004
0.21620429 0.31490624 1.7900003
0.22560443 0.31373119 1.7900001
0.23187125 0.31333953 1.7900001
0.24753822 0.31333953 1.7900001
0.25589395 0.31438398 1.7900002
0.26477188 0.31490624 1.7900004
0.27573881 0.31490624 1.7900003
0.28513896 0.31490624 1.7900003
0.29453915 0.31490624 1.7900003
0.30393934 0.31490624 1.7900003
0.31430367 0.31574985 1.7900004
0.32622123 0.31577662 1.7900001
0.33605665 0.3152979 1.7900001
0.34154007 0.31490624 1.7900001
0.35094026 0.3180396 1.7900001
0.36347386 0.31490621 1.7900002
0.40734139 0.31490624 1.7900001
0.41924825 0.31396618 1.7900002
0.42614174 0.31490624 1.7900003
0.43491527 0.31427956 1.7900002
0.44494212 0.31333953 1.7900001
0.56361943 0.31373119 1.7900001
0.57341141 0.31447896 1.7900003
0.58437824 0.31490621 1.7900001
0.15706143 0.3262648 1.7900001
0.16606995 0.32743981 1.7900002
0.17457488 0.32632077 1.7900002
0.18800372 0.32430643 1.7900001
0.20993748 0.32273972 1.7900001
0.21620429 0.32542551 1.7900002
0.22560444 0.32430643 1.7900001
0.24753822 0.32430643 1.7900001
0.26477191 0.32430643 1.7900001
0.27618641 0.32497787 1.7900002
0.28513899 0.32587311 1.7900001
0.29453912 0.32587311 1.7900001
0.30393934 0.32587308 1.7900001
0.31490624 0.32587308 1.7900003
0.32587311 0.32587308 1.7900001
0.33527327 0.32587308 1.7900001
0.34467348 0.3262648 1.7900001
0.35407367 0.32587311 1.7900001
0.36451831 0.32691756 1.7900001
0.37287402 0.32900649 1.7900001
0.3979412 0.32273972 1.7900001
0.52327698 0.32587311 1.7900001
0.54521078 0.32743979 1.7900002
0.55304426 0.32743981 1.7900001
0.040734138 0.3352733 1.7900001
0.15706144 0.3348816 1.7900001
0.16606995 0.3348816 1.7900001
0.17547013 0.3352733 1.7900001
0.18434809 0.33475107 1.7900002
0.19270381 0.3352733 1.7900001
0.2099375 0.33527327 1.7900002
0.21620427 0.33527327 1.7900001
0.22435109 0.33652663 1.7900002
0.28513896 0.33213991 1.7900002
0.2937558 0.33292323 1.7900001
0.30519271 0.33401993 1.7900002
0.31490624 0.33527327 1.7900003
0.32587311 0.33527327 1.7900001
0.3352733 0.33527327 1.7900001
0.34467348 0.33527327 1.7900001
0.35407367 0.33527327 1.7900001
0.36504054 0.33527327 1.7900003
0.37548518 0.33579552 1.7900002
0.38227421 0.33840668 1.7900001
0.42614174 0.33475107 1.7900002
0.45747569 0.33213988 1.7900001
0.478365 0.33631778 1.7900002
0.54677749 0.33527327 1.7900002
0.55304426 0.33527327 1.7900002
0.15980315 0.34310678 1.7900001
0.16651757 0.34377825 1.7900002
0.17547013 0.34467348 1.7900001
0.18487032 0.34467348 1.7900001
0.19387881 0.34506518 1.7900001
0.20367068 0.34780687 1.7900001
0.21575665 0.34377825 1.7900002
0.22605208 0.34377825 1.7900002
0.23187125 0.34154007 1.7900001
0.30550605 0.34467348 1.7900002
0.31490624 0.34467348 1.7900003
0.32587311 0.34467348 1.7900001
0.33527327 0.34467348 1.7900001
0.34467348 0.34467348 1.7900001
0.35407367 0.34467348 1.7900001
0.36410055 0.34216675 1.7900002
0.37914082 0.34154007 1.7900001
0.4026413 0.34780687 1.7900001
0.41423485 0.34592685 1.7900002
0.4786261 0.34389013 1.7900001
0.48410958 0.34467348 1.7900002
0.54729974 0.34258455 1.7900002
0.55147755 0.34154007 1.7900001
0.67994678 0.34780687 1.7900001
0.17703682 0.35407364 1.7900002
0.18487032 0.35362607 1.7900002
0.19301715 0.35282028 1.7900002
0.20053729 0.35094026 1.7900001
0.26868865 0.354857 1.7900001
0.27260539 0.35564035 1.7900001
0.3048346 0.35362604 1.7900002
0.31490624 0.3540737 1.7900003
0.32587308 0.35407367 1.7900001
0.33527327 0.35407367 1.7900001
0.34467348 0.35407367 1.7900001
0.35407367 0.35407367 1.7900001
0.36410052 0.35532701 1.7900002
0.41539869 0.35362604 1.7900002
0.4240528 0.35616261 1.7900002
0.47940946 0.35094026 1.7900001
0.48254287 0.35094026 1.7900001
0.49820983 0.35407364 1.7900002
0.5640111 0.35446534 1.7900001
0.5754053 0.35435855 1.7900003
0.6486128 0.35250697 1.7900001
0.65435737 0.3545959 1.7900002
0.67994678 0.35094026 1.7900001
0.269472 0.36034045 1.7900001
0.30393934 0.36504054 1.7900003
0.31459293 0.365145 1.7900006
0.32649976 0.36504054 1.7900002
0.33555818 0.36489812 1.7900003
0.34467348 0.36504054 1.7900003
0.35407364 0.36504051 1.7900003
0.49820983 0.36190712 1.7900001
0.54834414 0.36660725 1.7900001
0.55669987 0.36556277 1.7900002
0.56401116 0.3634738 1.7900001
0.57296371 0.36257857 1.7900002
0.68308014 0.36190712 1.7900001
-0.072068088 0.37914082 1.7900001
0.30393934 0.37600744 1.7900001
0.31490621 0.37600744 1.7900003
0.32587311 0.37600747 1.7900001
0.3352733 0.37600744 1.7900001
0.34428179 0.37561578 1.7900001
0.5373773 0.37757415 1.7900001
0.54677749 0.37287402 1.7900001
0.55304426 0.37287402 1.7900001
0.29610586 0.38697433 1.7900001
0.30349171 0.38451236 1.7900002
0.31557769 0.3836171 1.7900002
0.32626477 0.38501593 1.7900001
0.33527327 0.3854076 1.7900001
0.63607925 0.38540763 1.7900001
0.30080599 0.39480782 1.7900002
0.63294584 0.39480779 1.7900001
0.23657134 0.40577468 1.7900001
0.24362147 0.40499133 1.7900001
0.29453915 0.404208 1.7900002
0.30080596 0.4026413 1.7900001
0.3196063 0.404208 1.7900001
0.52484369 0.41047478 1.7900001
-0.50033146 0.037999857 1.8090001
-0.50033146 0.047499824 1.8090001
-0.49399817 0.047499828 1.8090003
-0.48291487 0.047499824 1.8090001
-0.50304574 0.054737896 1.8090003
-0.49445051 0.054737888 1.8090003
-0.48291487 0.055416457 1.8090001
-0.4760538 0.054888688 1.8090003
-0.50349808 0.064916424 1.8090003
-0.49490291 0.065142624 1.8090003
-0.48291489 0.064916432 1.8090001
-0.47499824 0.064916424 1.8090001
-0.39424855 0.068083085 1.8090001
-0.50349808 0.075999714 1.8090003
-0.49399817 0.075999722 1.8090003
-0.48386487 0.074733049 1.8090003
-0.47183156 0.075999714 1.8090003
-0.46708161 0.072833061 1.8090001
-0.44570667 0.078374706 1.8090001
-0.40691513 0.072833061 1.8090001
-0.39424855 0.072833061 1.8090001
-0.50349808 0.085499682 1.8090003
-0.49399811 0.085499682 1.8090003
-0.48449823 0.085499682 1.8090003
-0.4746024 0.085499682 1.8090001
-0.46640304 0.085047312 1.8090003
-0.45283166 0.085499682 1.8090001
-0.44649836 0.082333028 1.8090003
0.10386628 0.087399676 1.8090003
-0.53516471 0.098166302 1.8090001
-0.50466394 0.094918251 1.8075001
-0.4952932 0.094763331 1.8045
-0.48486683 0.09508314 1.8045002
-0.4757877 0.09494888 1.8080002
-0.4677459 0.09386795 1.8075001
-0.45916495 0.094999656 1.8090003
-0.44966498 0.094999649 1.8090001
0.10449961 0.094999649 1.8090003
0.11399957 0.096266307 1.8090003
-0.53499299 0.10465715 1.8063002
-0.52566469 0.10766626 1.8090001
-0.50440288 0.104952 1.8090003
-0.49528304 0.10432807 1.8060002
-0.48486683 0.10392299 1.8045
-0.47624063 0.10427455 1.805143
-0.46709418 0.10460674 1.8054001
-0.45520663 0.1068746 1.8090001
-0.41483182 0.10766627 1.8090003
-0.40533182 0.10766627 1.8090003
-0.39583182 0.10766627 1.8090003
-0.38949853 0.10766626 1.8090001
0.094945386 0.10444009 1.8080002
0.10449961 0.10449961 1.8090003
0.1899993 0.10133296 1.8090001
-0.53513098 0.11486384 1.8012855
-0.52633506 0.11446936 1.8073637
-0.51892805 0.11629343 1.8054001
-0.50349808 0.11399958 1.8090003
-0.49445051 0.11399958 1.8090003
-0.48440367 0.11351749 1.8063002
-0.47500277 0.11458024 1.8038573
-0.4649016 0.11504232 1.8005621
-0.4542968 0.11514571 1.8022499
-0.44554606 0.11463851 1.8080002
-0.43435949 0.11505513 1.8090003
-0.42433175 0.11452734 1.8090003
-0.41533592 0.11530146 1.8024546
-0.40503356 0.11504725 1.8006426
-0.39435226 0.11514702 1.8022499
-0.38633189 0.11399959 1.8090003
-0.37604028 0.11479124 1.8090001
-0.28043011 0.11973421 1.8000001
0.10444359 0.11393831 1.8080002
0.27549899 0.1143954 1.8090001
-0.53565305 0.126036 1.8000001
-0.527107 0.12516807 1.8040911
-0.51563692 0.12535405 1.8032143
-0.50447857 0.12471506 1.8055385
-0.49571696 0.12558858 1.8072001
-0.48511469 0.12523149 1.8066
-0.4751153 0.12530905 1.8025717
-0.46475777 0.12603602 1.8
-0.45372963 0.126036 1.8000001
-0.44463536 0.1250031 1.807875
-0.43383169 0.12508285 1.8090003
-0.42459166 0.12468703 1.8033751
-0.41631269 0.12564215 1.8000001
-0.40435645 0.12523109 1.8008182
-0.39444938 0.1267489 1.8045001
-0.38633189 0.12508285 1.8090003
-0.37630421 0.12534676 1.8090003
-0.28043014 0.12603602 1.8000001
-0.27307802 0.12813661 1.8000001
-0.26625106 0.12761146 1.8000001
0.094711773 0.12465106 1.8090003
0.10502739 0.12297177 1.8090003
0.22395496 0.12572092 1.8045
-0.52620029 0.1354887 1.8000001
-0.51517212 0.13548872 1.8
-0.50477421 0.13485853 1.8000001
-0.49522108 0.13534692 1.803375
-0.48367018 0.13528739 1.802
-0.47522554 0.13603561 1.801286
-0.4647578 0.1354887 1.8
-0.45372963 0.1354887 1.8000001
-0.4436205 0.13577098 1.80375
-0.43383169 0.13616617 1.8090003
-0.42450508 0.13571715 1.8030002
-0.41591883 0.1354887 1.8000001
-0.40539086 0.13565807 1.8022499
-0.38678426 0.1352614 1.8090003
-0.37556529 0.13363285 1.8090003
-0.2678265 0.13233781 1.8000001
0.094999656 0.13933282 1.8090003
0.10546589 0.13710618 1.8075001
0.11266045 0.13687511 1.8045001
0.13774949 0.13616617 1.8090003
0.20899922 0.13774949 1.8090001
0.2248325 0.13616617 1.8090003
0.36495697 0.13695782 1.8090001
-0.52620029 0.1449414 1.8000001
-0.51560014 0.1450635 1.8014998
-0.50561708 0.14611512 1.8015002
-0.493431 0.14620176 1.8000001
-0.48366317 0.1449414 1.8000001
-0.47578594 0.1449414 1.8000001
-0.4647578 0.14494142 1.8
-0.45327953 0.14404115 1.8000002
-0.44343537 0.14518167 1.803
-0.43473649 0.14521375 1.8090003
-0.42502493 0.14517771 1.8030001
-0.41591886 0.1449414 1.8000002
-0.40466067 0.14445458 1.8018001
0.085499682 0.14566612 1.8090003
0.094999649 0.14566612 1.8090003
0.10414775 0.14518298 1.8030001
0.11412088 0.14501546 1.8009001
0.12539953 0.14598279 1.8090003
0.1614994 0.14724946 1.8090001
0.22443667 0.14566612 1.8090001
0.30399886 0.14566612 1.8090003
0.353082 0.14883278 1.8090001
-0.52575016 0.15349385 1.8000002
-0.5153861 0.15445715 1.8007498
-0.50561708 0.15399501 1.8015002
-0.49784222 0.15124321 1.8000001
-0.48366317 0.15439411 1.8000001
-0.47736141 0.15439411 1.8000001
-0.46318233 0.15124321 1.8000001
-0.45057872 0.15281865 1.8000001
-0.4442769 0.15400024 1.8000001
-0.43462417 0.15423027 1.8018
-0.42502668 0.15464793 1.8030001
-0.4171792 0.15502428 1.8000001
-0.40286514 0.15349385 1.8000002
-0.39495131 0.15482123 1.8050001
-0.37539259 0.15545397 1.8090003
0.094681054 0.15464793 1.8030001
0.10397971 0.15439411 1.8000001
0.11463118 0.1547493 1.8008182
0.12590683 0.15469347 1.8072001
0.13616617 0.15516609 1.8090003
0.16339938 0.15453276 1.8090003
0.20480852 0.157545 1.8000001
0.23433247 0.15674941 1.8090003
0.24145743 0.15437442 1.8090001
0.30425319 0.15437837 1.805143
0.31495219 0.15510044 1.8082502
0.38545945 0.15536694 1.8067501
-0.52515006 0.16384681 1.8000001
-0.51517218 0.16384681 1.8
-0.50729489 0.16384681 1.8000001
-0.48523861 0.16069591 1.8000001
-0.47767645 0.16321664 1.8000001
-0.46948412 0.16227135 1.8000001
-0.44532722 0.1617462 1.8000001
-0.43587452 0.16332166 1.8000001
-0.42537153 0.16227135 1.8000001
-0.41801941 0.1617462 1.8000001
-0.40646613 0.16069591 1.8000001
-0.39324132 0.16351146 1.801286
-0.38526234 0.16420917 1.8040003
0.094527006 0.16384681 1.8000001
0.10397971 0.16384681 1.8000001
0.11505645 0.1639151 1.80075
0.12624782 0.16412164 1.8030001
0.13616616 0.16466606 1.8090003
0.14566612 0.16466604 1.8090003
0.15199943 0.16308272 1.8090001
0.16308272 0.16466606 1.8090003
0.20480852 0.1617462 1.8000001
0.23368651 0.16420566 1.804
0.24224912 0.16466606 1.8090003
0.34421486 0.16421443 1.8040003
0.35466534 0.16466606 1.8090003
0.36461431 0.16489922 1.8081001
0.37448451 0.16385539 1.8032728
-0.51320285 0.17684427 1.8000001
-0.50729489 0.17487496 1.8000001
-0.47578591 0.17329951 1.8000001
-0.46318233 0.17750071 1.8000001
-0.45372963 0.17960131 1.8000001
-0.44364673 0.17708059 1.8000001
-0.43797511 0.17172405 1.8000001
-0.42537153 0.17960131 1.8000001
-0.41828197 0.17723812 1.8000001
-0.39071164 0.17329952 1.8000001
-0.38460207 0.17401476 1.8009001
-0.37537548 0.17348856 1.802
-0.36550444 0.17329951 1.8000001
0.094527006 0.17487496 1.8
0.10397971 0.17487496 1.8
0.11498054 0.17467438 1.8011999
0.12645788 0.17387892 1.8060002
0.13616617 0.17416599 1.8090003
0.14566612 0.17416602 1.8090003
0.15516609 0.17416604 1.8090003
0.22433884 0.17378442 1.8050001
0.23343287 0.17435822 1.8045
0.24383242 0.17416602 1.8090003
0.2655516 0.17470954 1.8081001
0.28565857 0.17467648 1.8011998
0.2961846 0.17530462 1.8
0.34530851 0.17344654 1.8014998
0.35610095 0.17390607 1.8022501
0.36573681 0.17444567 1.8037499
0.37495708 0.17487496 1.8
0.38440987 0.17487496 1.8
0.39435488 0.17508766 1.8022499
0.40504193 0.1745331 1.8063002
-0.51517218 0.18590312 1.8
-0.50729489 0.18432766 1.8000001
-0.46003142 0.18275221 1.8000001
-0.45688051 0.18275221 1.8000001
-0.44112602 0.18747856 1.8000001
-0.42537156 0.1859031 1.8000001
-0.41591883 0.1859031 1.8000001
-0.40457559 0.18653329 1.8000001
-0.38677299 0.18511538 1.8000001
0.094632037 0.18611144 1.8020003
0.10409699 0.18611319 1.802
0.11543809 0.18591888 1.8048463
0.12645613 0.18493554 1.8060001
0.1359968 0.185013 1.8067502
0.14548233 0.18501431 1.8067501
0.15466909 0.18513688 1.8065456
0.16487987 0.18746957 1.8064287
0.17416602 0.18841599 1.8090003
0.18715167 0.18873893 1.8045001
0.19671245 0.18617271 1.8060002
0.21533254 0.18592046 1.8063002
0.22483252 0.18524931 1.8090003
0.23462036 0.18568113 1.8090003
0.24383241 0.18524933 1.8090003
0.25395679 0.18537892 1.8032728
0.28555641 0.18591402 1.8048462
0.2961846 0.1859031 1.8000001
0.33519712 0.18525575 1.8049091
0.34585121 0.18525614 1.8060001
0.3561489 0.18478325 1.8045
0.36526096 0.18492062 1.8016363
0.37495711 0.18590312 1.8000001
0.38440984 0.18590312 1.8000001
0.39386249 0.1859031 1.8000001
0.40515962 0.18533033 1.8032142
0.86449683 0.18999931 1.8090003
0.88033003 0.1899993 1.8090001
-0.51674759 0.19220491 1.8000001
-0.50729489 0.19693126 1.8000001
-0.42615923 0.19299263 1.8000001
-0.41513109 0.19299263 1.8000001
-0.40489066 0.19535582 1.8
-0.39701343 0.19850671 1.8000001
0.085074306 0.1953558 1.8000001
0.094579525 0.1954626 1.801
0.10427029 0.19589321 1.8050001
0.11519691 0.19567749 1.803
0.126036 0.19535582 1.8000001
0.1354887 0.1953558 1.8000001
0.1449414 0.19535582 1.8000001
0.15465668 0.19568141 1.8030001
0.16438946 0.1960035 1.806
0.17453466 0.1963515 1.8063002
0.18517412 0.19550762 1.8040909
0.19611552 0.19611378 1.807
0.20583257 0.19633259 1.8090003
0.2148599 0.1958967 1.8050001
0.22433186 0.19589494 1.8050001
0.23394734 0.19600524 1.8060002
0.24383242 0.19633259 1.8090003
0.25395858 0.1956 1.8022499
0.28515649 0.19535582 1.8
0.2961846 0.19535582 1.8000001
0.3056373 0.19535582 1.8000001
0.32490507 0.19557638 1.802
0.33492321 0.19590196 1.8050001
0.34625819 0.19569096 1.8057274
0.35605171 0.1953558 1.8000001
0.39386252 0.19535582 1.8000001
0.40331525 0.1945681 1.8000001
0.50666475 0.19791593 1.8090001
0.85578847 0.19870758 1.8090001
0.86502457 0.19738816 1.8090003
0.87399673 0.19633259 1.8090003
0.88455224 0.1984437 1.8090003
-0.50729489 0.20480852 1.8000001
-0.40016431 0.20165761 1.8000001
-0.39386252 0.20638396 1.8000001
-0.38756073 0.20323306 1.8000001
0.076521859 0.20435838 1.8000002
0.085074306 0.20480852 1.8000001
0.094527006 0.20480852 1.8000001
0.1039797 0.20480852 1.8000001
0.1151024 0.20497787 1.8015001
0.126036 0.20480853 1.8000001
0.13563927 0.20503785 1.802
0.1449414 0.20480853 1.8000001
0.15439411 0.20480853 1.8000001
0.16384681 0.20480852 1.8000001
0.17408724 0.20362695 1.8000001
0.18669082 0.20244533 1.8000001
0.19590196 0.20537393 1.8050001
0.20583257 0.20622841 1.8090001
0.21521173 0.20571877 1.8080002
0.22470821 0.2057188 1.8080002
0.2340769 0.20560326 1.8070003
0.24383242 0.20583256 1.8090003
0.25395861 0.20506452 1.8022499
0.27307802 0.20375822 1.8000001
0.28358102 0.20244533 1.8000001
0.30603117 0.20520237 1.8000001
0.31509 0.20480852 1.8000001
0.32562456 0.20548597 1.806
0.33510876 0.20548598 1.8060002
0.34559339 0.20514724 1.803
0.35624778 0.20492055 1.801
0.36511058 0.20520236 1.8000001
0.47499824 0.20741589 1.8090001
0.50666475 0.20266591 1.8090001
0.85499674 0.20583256 1.8090003
0.86449677 0.20583256 1.8090003
0.87354439 0.20492782 1.8090003
-0.39071161 0.2142612 1.8000001
-0.38480371 0.21465506 1.8000001
-0.37495711 0.2142612 1.8000001
0.086649746 0.21426122 1.8000001
0.094527006 0.21426122 1.8000001
0.10397971 0.21426122 1.8000001
0.11500786 0.21426123 1.8
0.126036 0.2142612 1.8000001
0.1354887 0.2142612 1.8000001
0.1449414 0.2142612 1.8000001
0.15447813 0.21438023 1.801
0.16384681 0.2142612 1.8000001
0.17014861 0.21268576 1.8000001
0.19681469 0.21321197 1.8018
0.2053792 0.21485113 1.8050001
0.21509445 0.21509096 1.807
0.2245822 0.21509095 1.807
0.23368825 0.21473385 1.8040003
0.24383242 0.21533254 1.8090003
0.25395861 0.21452907 1.8022501
0.26467562 0.21426123 1.8000001
0.27412829 0.2142612 1.8000001
0.2847268 0.21454768 1.8
0.29460916 0.2142612 1.8000001
0.3056373 0.21386734 1.8000001
0.31508997 0.21426122 1.8000001
0.32454273 0.2142612 1.8000001
0.3339954 0.21426122 1.8000001
0.3450236 0.2142612 1.8
0.35605171 0.21426122 1.8000001
0.4570539 0.21586031 1.8090003
0.46444273 0.21638808 1.8090003
0.47499824 0.21691585 1.8090001
0.50666475 0.2137492 1.8090001
0.53727579 0.21638808 1.8090003
0.85499674 0.21533254 1.8090003
0.86449677 0.21533252 1.8090003
0.87083006 0.2137492 1.8090001
0.90407997 0.2137492 1.8090001
-0.3812589 0.22213846 1.8000001
-0.3728565 0.22476421 1.8000001
-0.36640468 0.22416405 1.8000002
0.085974559 0.22416405 1.8000002
0.094527006 0.2237139 1.8000001
0.10397971 0.2237139 1.8000001
0.11500786 0.22371392 1.8
0.12610778 0.22383645 1.801
0.13563925 0.22395897 1.8020003
0.1449414 0.2237139 1.8000001
0.15439411 0.22371393 1.8000001
0.16384681 0.22371393 1.8000001
0.17251179 0.22450162 1.8000001
0.18905401 0.2237139 1.8000001
0.19580594 0.22281365 1.8000002
0.20526366 0.22420581 1.804
0.21449752 0.223959 1.802
0.22267412 0.22267412 1.8018001
0.23379676 0.2237139 1.8000001
0.24422827 0.2248325 1.8090001
0.25395864 0.22399354 1.8022499
0.26467562 0.2237139 1.8000001
0.27412832 0.2237139 1.8000001
0.28515649 0.22371392 1.8
0.29573449 0.22461417 1.8000002
0.3056373 0.2237139 1.8000001
0.31509003 0.22371393 1.8000001
0.3245427 0.2237139 1.8000001
0.3339954 0.22371393 1.8000001
0.3450236 0.22371392 1.8
0.35605168 0.22371393 1.8000001
0.36511058 0.22332005 1.8000001
0.44448322 0.2251204 1.8090003
0.45639417 0.22522834 1.8090001
0.46504587 0.22573727 1.8090003
0.53833139 0.2248325 1.8090003
0.85516226 0.22445703 1.8060001
0.86449677 0.2248325 1.8090003
0.87083006 0.2248325 1.8090003
0.89405221 0.22588806 1.8090003
-0.36445415 0.23421693 1.8000001
0.086649753 0.23474205 1.8000001
0.094527006 0.23474208 1.8
0.10397971 0.23474209 1.8
0.11500785 0.23474209 1.7999997
0.12603602 0.23474209 1.8
0.1354887 0.23474208 1.8
0.14533527 0.23277275 1.8000001
0.15484424 0.23226635 1.8000002
0.16413327 0.23431242 1.8
0.17487495 0.23474208 1.7999997
0.18597925 0.23484056 1.8007498
0.19535582 0.23526719 1.8000001
0.2048085 0.23474205 1.8
0.21426123 0.23474208 1.8
0.22213846 0.23631752 1.8000001
0.23442702 0.23505718 1.7999998
0.24456389 0.23371127 1.8077145
0.25421149 0.23466015 1.8017999
0.26467562 0.23474205 1.8
0.27412832 0.23474208 1.8
0.28524509 0.23481396 1.8005623
0.2961846 0.23474208 1.8
0.30563733 0.23474209 1.8
0.31509 0.23474209 1.8
0.32454273 0.23474209 1.8
0.3339954 0.23474209 1.8
0.34491858 0.23463705 1.7999998
0.35633814 0.23431242 1.8
0.36533904 0.23331234 1.8011252
0.37601271 0.23421431 1.8081001
0.38633189 0.23433246 1.8090003
0.39345688 0.2335408 1.8090001
0.4250249 0.23356046 1.8030001
0.43473649 0.23478486 1.8090003
0.44491503 0.23433249 1.8090003
0.45599833 0.23433246 1.8090003
0.46549824 0.23433246 1.8090003
0.50666475 0.23433247 1.8090003
0.52249807 0.2311658 1.8090001
0.53706467 0.23433244 1.8090003
0.54149801 0.23274913 1.8090001
0.86367553 0.23428519 1.8056251
0.8729412 0.23538801 1.8090003
0.88834906 0.23815554 1.8060001
0.89551878 0.23602104 1.8065455
-0.36424407 0.24514003 1.8000001
