# .PCD v0.7 - Point Cloud Data file format
VERSION 0.7
FIELDS x y z
SIZE 4 4 4
TYPE F F F
COUNT 1 1 1
WIDTH 509
HEIGHT 1
VIEWPOINT 0 0 0 1 0 0 0
POINTS 509
DATA ascii
0.79740888 -0.4224517 1.4280001
0.79415393 -0.41542941 1.4262003
0.75491369 -0.40245399 1.4280001
0.74866438 -0.39495486 1.4280002
0.75468647 -0.39609107 1.4280003
0.79740888 -0.39995429 1.4280001
0.74803948 -0.38933048 1.4280001
0.75604993 -0.38722846 1.4280003
0.74491489 -0.37370729 1.4280002
0.75678849 -0.37433219 1.4280001
0.72772932 -0.36464581 1.4280002
0.73658246 -0.36724973 1.4280003
0.7436651 -0.36745799 1.4280002
0.70991886 -0.3524597 1.4280001
0.71991771 -0.35370958 1.4280001
0.72645551 -0.35669002 1.4280003
0.73574919 -0.35704252 1.4280002
0.70866907 -0.34746027 1.4280002
0.71587968 -0.34707573 1.4280003
0.72616708 -0.34621042 1.4280002
0.74804467 -0.40163472 1.434
0.75432026 -0.40498167 1.434
0.74553454 -0.39452243 1.434
0.75055486 -0.39786941 1.434
0.73800379 -0.38155299 1.434
0.74661034 -0.38406321 1.4340001
0.73549354 -0.37590501 1.434
0.74302423 -0.3771601 1.434
0.7154119 -0.36147127 1.434
0.72444862 -0.36448354 1.434
0.74804467 -0.36649168 1.434
0.70788121 -0.35143039 1.434
0.71427089 -0.35667902 1.434
0.72252411 -0.35686922 1.434
0.7354936 -0.35394061 1.434
0.71397752 -0.34246534 1.4340001
0.69735205 -0.43030795 1.4460001
0.71549243 -0.43115172 1.4460001
0.72554064 -0.43260908 1.4460001
0.73152351 -0.43283921 1.4460001
0.69717133 -0.42343751 1.4460002
0.70570511 -0.42246118 1.4460001
0.71507061 -0.42397985 1.4459999
0.72519541 -0.42397988 1.4459999
0.73260838 -0.42343751 1.4460002
0.69753289 -0.41367421 1.4460002
0.70494574 -0.41367421 1.446
0.71507061 -0.41385496 1.4459999
0.72519541 -0.41385505 1.4459999
0.73495883 -0.41331255 1.446
0.68849272 -0.40499571 1.4460001
0.69482076 -0.40499568 1.4460001
0.70460051 -0.40522581 1.4460001
0.71380496 -0.40689412 1.4460001
0.72595483 -0.40524885 1.4460001
0.73532033 -0.40499574 1.4460001
0.74569207 -0.40479803 1.4431765
0.68638337 -0.39402708 1.4460001
0.69383651 -0.39655834 1.4460001
0.70367998 -0.39776367 1.4460002
0.71696901 -0.39582005 1.4460001
0.72544861 -0.39588332 1.446
0.73517036 -0.39540067 1.4443334
0.74391258 -0.39520773 1.4412858
0.6849491 -0.3857584 1.446
0.69482076 -0.38601154 1.4459999
0.70503008 -0.38575843 1.446
0.71559709 -0.38555965 1.4450527
0.7256006 -0.38555613 1.4442859
0.73409677 -0.38545394 1.4414121
0.74424261 -0.38661546 1.4400001
0.68478024 -0.37613982 1.446
0.69482076 -0.37588665 1.4459999
0.70439684 -0.37559387 1.444875
0.71573758 -0.37557471 1.4448
0.72621489 -0.37510878 1.4430001
0.73368418 -0.37639755 1.4417145
0.68740791 -0.36558098 1.4460002
0.69520062 -0.36531299 1.4453332
0.70565987 -0.36547881 1.4448748
0.71463257 -0.36615866 1.4425714
0.72344673 -0.36676484 1.4400001
0.69482082 -0.35563684 1.4459999
0.70424342 -0.35498318 1.4425265
0.71084309 -0.35668191 1.4400001
0.71462417 -0.49513248 1.4580001
0.71775055 -0.48232061 1.454
0.71740216 -0.47720909 1.452
0.67123628 -0.46195349 1.4580001
0.7193085 -0.4651359 1.452
0.72511822 -0.46658832 1.452
0.66613185 -0.45174456 1.4580001
0.67520636 -0.45628187 1.4580001
0.68450785 -0.45276546 1.4580001
0.70824361 -0.45684904 1.4580001
0.71334803 -0.45684904 1.4580001
0.66692662 -0.44580832 1.4564002
0.67375481 -0.44547653 1.4524285
0.68470991 -0.44572458 1.4549999
0.69531018 -0.44653985 1.4569091
0.67390341 -0.4353489 1.4543999
0.68440604 -0.43563098 1.4537143
0.69490796 -0.43616021 1.4519999
0.705621 -0.43506894 1.4525999
0.67531985 -0.42469096 1.4580002
0.68513066 -0.4255968 1.4549999
0.69389129 -0.42573914 1.4519999
0.70587373 -0.42846245 1.452
0.67465121 -0.41401991 1.454
0.68524939 -0.41531813 1.4519999
0.69428241 -0.41567007 1.4519999
0.70787072 -0.41684309 1.452
0.66769874 -0.40442091 1.4563637
0.6748668 -0.40440932 1.4529998
0.68499523 -0.40540534 1.4519998
0.69134951 -0.40413445 1.452
0.67521888 -0.39527327 1.4538749
0.68395549 -0.39604717 1.4519999
0.69706845 -0.39778012 1.452
0.70490539 -0.39537966 1.4519999
0.68118262 -0.38507152 1.452
0.68299812 -0.37363377 1.452
0.67399859 -0.52023464 1.4640001
0.69834453 -0.51254642 1.4640001
0.67720199 -0.50421757 1.4640001
0.6855309 -0.50443113 1.4640001
0.69683015 -0.50579017 1.4640001
0.67912406 -0.49332595 1.4640001
0.68424952 -0.49396664 1.4640001
0.67912406 -0.48948184 1.4640001
0.68296814 -0.48948184 1.4640001
0.68424958 -0.4749597 1.4640001
0.69514114 -0.47346479 1.4640001
0.70603275 -0.47602752 1.4640001
0.66528529 -0.46180436 1.4640001
0.67542231 -0.46385452 1.464
0.68531728 -0.46470878 1.4640001
0.6641748 -0.4557392 1.4640001
0.67314434 -0.45787483 1.4640001
0.68681228 -0.45787483 1.4640001
0.66374761 -0.4449544 1.464
0.67143583 -0.44078994 1.4640001
0.66887313 -0.43438309 1.4640001
0.67194837 -0.43361425 1.4640001
0.67143583 -0.42669493 1.4640001
0.6954965 -0.59207696 1.4770001
0.70842391 -0.57139301 1.4770001
0.66447061 -0.5532946 1.4770001
0.65636569 -0.54180491 1.4762224
0.66481495 -0.54476613 1.4749001
0.64831126 -0.53196436 1.4770001
0.65561724 -0.53413308 1.4765881
0.66454685 -0.53464335 1.4727221
0.67507088 -0.53383225 1.4732308
0.63861573 -0.5248543 1.4770001
0.64507949 -0.52485424 1.4770001
0.65542144 -0.52485418 1.4770001
0.66541058 -0.52519733 1.4737058
0.67535734 -0.52517396 1.4700003
0.68576717 -0.52493995 1.4700001
0.62396467 -0.51192677 1.4770001
0.6360302 -0.5145123 1.4770001
0.65542156 -0.51580507 1.4769999
0.66598934 -0.51565504 1.4740524
0.67547423 -0.51593369 1.4699999
0.68576717 -0.51593369 1.4699999
0.64585871 -0.50700533 1.4763638
0.6554215 -0.50546306 1.4769999
0.66611898 -0.5054599 1.4746665
0.6751067 -0.50545698 1.47
0.68628186 -0.50538343 1.4700001
0.64895767 -0.49512112 1.4770001
0.6554215 -0.49512106 1.4769999
0.66641897 -0.49516645 1.4755998
0.67547417 -0.49534774 1.4699999
0.68737549 -0.49695605 1.4700001
0.65477568 -0.48463657 1.4742
0.66702724 -0.48580241 1.4745001
0.67547429 -0.48505485 1.4699999
0.64701855 -0.47572994 1.4770001
0.66518128 -0.47476187 1.4699999
0.67547417 -0.47476187 1.4699999
0.66421628 -0.46672052 1.4700001
0.67418766 -0.46747109 1.47
0.64901721 -0.62034577 1.4890001
0.64901721 -0.61773926 1.4890001
0.66204971 -0.60991979 1.4890001
0.675951 -0.60557568 1.4890001
0.6464107 -0.5994938 1.4890001
0.66755229 -0.59543926 1.4890002
0.67508221 -0.59688723 1.4890002
0.64901721 -0.58124834 1.4890001
0.65523267 -0.58445626 1.4890002
0.66365945 -0.58456987 1.4875002
0.64714873 -0.57280946 1.4864287
0.65419292 -0.5747261 1.4835999
0.69463086 -0.57082236 1.4890001
0.7061097 -0.57111818 1.483
0.64705384 -0.56517333 1.485
0.65511703 -0.56407189 1.483
0.65541565 -0.55427706 1.4837058
0.66329134 -0.55461711 1.4840001
0.65419358 -0.54673326 1.48375
0.65159386 -0.53996623 1.483
0.63860828 -0.5242691 1.4844999
0.66457385 -0.52179432 1.483
0.61773926 -0.51217622 1.4890001
0.61773926 -0.50826651 1.4890001
0.62352812 -0.46491322 1.4854001
0.6468308 -0.62326211 1.4960001
0.65599644 -0.62064332 1.4960001
0.63740331 -0.61645335 1.4960002
0.64645672 -0.61278713 1.4960002
0.65442514 -0.61331093 1.4960002
0.66516209 -0.61278713 1.4960002
0.63897455 -0.60493088 1.4960001
0.64525956 -0.60493088 1.4960002
0.65563935 -0.60469276 1.4960002
0.63733786 -0.59478319 1.4960002
0.6455214 -0.59576517 1.4960002
0.65599638 -0.59655082 1.4960002
0.63687962 -0.58581394 1.4960002
0.6455214 -0.58529025 1.4960002
0.65206832 -0.58790898 1.4960001
0.63766521 -0.57481521 1.4960002
0.65206832 -0.57874334 1.4960001
0.62849957 -0.56041211 1.4960001
0.62849957 -0.55779338 1.4960001
0.5964703 -0.52455544 1.4960002
0.60231209 -0.52505898 1.4960001
0.61540586 -0.52113092 1.4960001
0.62719023 -0.52244031 1.4960001
0.59751105 -0.51676631 1.4960002
0.6045568 -0.51402295 1.4960002
0.61409652 -0.51458406 1.4960002
0.62363625 -0.51514518 1.4960002
0.64646709 -0.62280393 1.502
0.63498908 -0.6152637 1.5025834
0.64591932 -0.61480659 1.5020001
0.64679581 -0.60998631 1.5020001
0.64942503 -0.58106452 1.5020001
0.60622531 -0.56264049 1.5090001
0.61479038 -0.56506354 1.5084167
0.62501651 -0.56472063 1.5070002
0.60867167 -0.52453566 1.502
0.60730982 -0.56399363 1.5150001
0.61526585 -0.56399363 1.5150001
-0.48322207 0.45675451 1.728
-0.48276836 0.47429872 1.728
-0.48397827 0.48246586 1.728
-0.52178907 0.53842586 1.728
-0.51120204 0.55355012 1.728
-0.50696725 0.55415517 1.728
-0.48568502 0.35739088 1.7450001
-0.48568502 0.44597489 1.745
-0.49484891 0.45819342 1.7450002
-0.48364863 0.45310241 1.7450002
-0.50401276 0.46532089 1.7450002
-0.49484894 0.4643026 1.745
-0.54677749 0.54738843 1.7450001
-0.53659546 0.54779571 1.7450002
-0.52844971 0.54983211 1.7450001
-0.55288672 0.55594134 1.7450001
-0.54541993 0.55628079 1.745
-0.53532267 0.55823231 1.7450001
-0.54066825 0.56205058 1.7450001
-0.53455901 0.56205058 1.7450002
-0.52844971 0.5651052 1.7450001
-0.48204923 0.31778407 1.7540001
-0.49126035 0.32699519 1.7540001
-0.4835844 0.32545999 1.7540001
-0.49126035 0.33774149 1.7540001
-0.48665482 0.33774149 1.7540001
-0.49126038 0.34388226 1.7540001
-0.48614308 0.34183535 1.7540001
-0.49554461 0.26628911 1.7630002
-0.49254665 0.27466571 1.7630001
-0.49254665 0.28392413 1.7630001
-0.49378109 0.29009637 1.7630001
-0.49378109 0.30861318 1.7630001
-0.4829796 0.30475551 1.7630001
-0.49378109 0.31787157 1.7630001
-0.49532419 0.32558692 1.7630002
-0.54254192 0.33762282 1.7630001
-0.54227746 0.3452059 1.7630002
-0.54161614 0.35490513 1.7630002
-0.54227751 0.36416358 1.7630002
-0.55241758 0.37805116 1.7630001
-0.54573095 0.37239322 1.7630002
-0.55550373 0.38268033 1.7630001
-0.49087349 0.22721317 1.7720001
-0.48466974 0.22876412 1.7720001
-0.49231368 0.23574337 1.7720003
-0.48389426 0.23535563 1.7720002
-0.48079237 0.2481509 1.7720001
-0.50612444 0.26676223 1.7720002
-0.49281216 0.29506692 1.7720002
-0.48622066 0.29467919 1.7720001
-0.49319994 0.30398488 1.7720002
-0.48699614 0.30398485 1.7720001
-0.55213577 0.31639239 1.7720001
-0.49319991 0.31445372 1.7720002
-0.54593199 0.32569805 1.7720002
-0.49707726 0.32337165 1.7720001
-0.55213577 0.33345276 1.7720001
-0.54593199 0.33345276 1.7720002
-0.55368674 0.34430939 1.7720002
-0.54903388 0.34430939 1.7720001
-0.54903388 0.35516599 1.7720001
-0.54903388 0.36602259 1.7720001
-0.54870474 0.28682297 1.7810001
-0.55649889 0.33982283 1.7810001
-0.52578372 0.15854979 1.7900002
-0.54207736 0.20993748 1.7900001
-0.54395741 0.21745764 1.7900002
-0.55147755 0.22247106 1.7900001
-0.54834414 0.22403777 1.7900001
-0.56087774 0.23657134 1.7900001
-0.55774432 0.23813803 1.7900001
-0.54834414 0.23343796 1.7900001
-0.56244445 0.24440482 1.7900001
-0.55649096 0.24503151 1.7900002
-0.55382764 0.25458837 1.7900001
-0.55147755 0.26007181 1.7900001
-0.54360908 0.10555516 1.8090003
-0.54631889 0.1133799 1.8075001
-0.54529798 0.12413287 1.8090003
-0.54255354 0.13616616 1.8090003
-0.53475279 0.13503857 1.8000002
-0.53407758 0.14494139 1.8000001
-0.53525919 0.15478796 1.8000001
-0.53655332 0.16429694 1.8000002
-0.53683466 0.17408723 1.8000001
-0.52935123 0.17329951 1.8000001
-0.53880394 0.18275221 1.8000001
-0.52935123 0.18275221 1.8000001
-0.55613387 0.23316662 1.8000001
-0.58543724 0.24450985 1.8000001
-0.57587272 0.24309984 1.8036
-0.56716204 0.24261931 1.8000001
-0.26428527 -0.68300223 1.8190001
-0.25314069 -0.68459433 1.8190001
-0.26237479 -0.67567873 1.8190001
-0.25473279 -0.67504185 1.8190001
-0.2611011 -0.66867357 1.8190001
-0.25314075 -0.65593696 1.8190001
-0.25314072 -0.64479238 1.8190001
-0.24518029 -0.6441555 1.8190001
-0.25314072 -0.63364786 1.8190001
-0.24518029 -0.6336478 1.819
-0.25282228 -0.62473214 1.8190001
-0.52538633 0.012736639 1.8190001
-0.53175467 0.047762398 1.8190001
-0.53175467 0.063683197 1.8190001
-0.52538633 0.063683189 1.819
-0.534302 0.074827753 1.8190001
-0.52509689 0.074972488 1.8190001
-0.53493881 0.085972317 1.819
-0.52538633 0.085972317 1.819
-0.53493887 0.09512677 1.8190001
-0.53175467 0.1034852 1.8190001
-0.65354878 0.20378622 1.8190001
-0.6453231 0.20414002 1.819
-0.61454278 0.22607534 1.819
-0.2655929 -0.69438142 1.8279999
-0.26623288 -0.68542165 1.8280001
-0.25919306 -0.68478167 1.8280001
-0.27519262 -0.67518187 1.8279999
-0.26751286 -0.67454195 1.8280001
-0.25919306 -0.67198199 1.8280001
-0.26559287 -0.66558218 1.8279999
-0.25919306 -0.66558218 1.8280001
-0.25919306 -0.65918231 1.8280001
-0.51198626 -0.11359696 1.8280001
-0.51198626 -0.10559717 1.8280001
-0.50604361 -0.10468291 1.8280002
-0.51198626 -0.095997423 1.8280001
-0.51198626 -0.086397693 1.8280001
-0.51198626 -0.075197987 1.8280001
-0.5055865 -0.07519798 1.8279998
-0.52558589 -0.043998823 1.8280001
-0.53118575 -0.033599101 1.8280001
-0.52518594 -0.034799069 1.8280001
-0.53118575 -0.025599314 1.8280001
-0.53347147 -0.015542441 1.8280002
-0.52478594 -0.015999569 1.8279999
-0.53398567 -0.0067998176 1.8280001
-0.52478594 -0.006399828 1.8279999
-0.533319 0.0053331903 1.8279999
-0.524786 0.0047998712 1.8279998
-0.53398567 0.015599581 1.8280001
-0.52438593 0.016399559 1.8280001
-0.51678616 0.01599957 1.8280001
-0.53438568 0.025599316 1.8279999
-0.52478594 0.025599314 1.8279999
-0.51678616 0.025599314 1.8280001
-0.53438568 0.035199054 1.8279999
-0.52478594 0.035199057 1.8279999
-0.51710618 0.034559075 1.8280001
-0.52478594 0.044798803 1.8279999
-0.51758611 0.044798799 1.8280001
-0.52478594 0.054398544 1.8279999
-0.51838613 0.051198628 1.8280001
-0.6649422 0.19583476 1.8280001
-0.66512507 0.20388027 1.8280002
-0.65918231 0.20479451 1.8280001
-0.51156962 -0.17534935 1.8380001
-0.51317835 -0.13191418 1.8380001
-0.51237398 -0.11663144 1.8380001
-0.52508283 -0.10424439 1.8380002
-0.51800448 -0.10456613 1.8380001
-0.53087413 -0.091696441 1.8380001
-0.52443933 -0.09491387 1.8380001
-0.51800448 -0.094913863 1.8380001
-0.53409159 -0.083652906 1.8380002
-0.52443928 -0.083652891 1.8380002
-0.52443933 -0.074000642 1.8380002
-0.53368938 -0.06475056 1.8380002
-0.52443928 -0.064348377 1.8380002
-0.53368938 -0.055098299 1.8380002
-0.52443933 -0.054696128 1.8380002
-0.53355539 -0.045043871 1.8380002
-0.52283061 -0.045043871 1.8380002
-0.53650463 -0.036195967 1.8380001
-0.52283061 -0.038609032 1.8380001
-0.68485063 0.19534332 1.8380003
-0.67887545 0.19947998 1.8380001
-0.6853103 0.20752355 1.8380002
-0.67657733 0.20637447 1.8380003
-0.66922319 0.20913224 1.8380001
-0.67244059 0.21234967 1.8380001
-0.66761446 0.21234967 1.8380001
-0.67887545 0.22843675 1.8380001
-0.66278833 0.22200193 1.8380001
-0.67673051 0.23594408 1.8380002
-0.6638608 0.23701654 1.8380001
-0.67565805 0.24452384 1.8380002
-0.66600579 0.24452387 1.8380002
-0.53268421 -0.13371021 1.848
-0.52405775 -0.12616205 1.8479998
-0.67609918 0.1665986 1.848
-0.66639441 0.16498114 1.848
-0.6922738 0.17792083 1.848
-0.68418646 0.17792083 1.848
-0.67556012 0.17522506 1.8479999
-0.69550872 0.18358195 1.848
-0.685157 0.18309671 1.8479999
-0.69712615 0.19409546 1.8479999
-0.70456648 0.20185928 1.8479999
-0.69597083 0.20287599 1.8479999
-0.68796062 0.20272192 1.848
-0.66962934 0.21835738 1.848
-0.51063138 -0.27320406 1.858
-0.50737894 -0.27320406 1.858
-0.67650527 0.065048583 1.858
-0.67325282 0.078058302 1.858
-0.69276744 0.11546124 1.858
-0.68666917 0.11424158 1.8579999
-0.70252472 0.12684473 1.858
-0.6947189 0.12489327 1.858
-0.69601983 0.13009718 1.8580002
-0.52318943 -0.36296269 1.868
-0.52318943 -0.35642281 1.868
-0.5146876 -0.35380685 1.868
-0.52318943 -0.34497803 1.868
-0.51501465 -0.34497806 1.868
-0.52318943 -0.33353329 1.868
-0.67469639 0.018529627 1.868
-0.6717335 -0.053694844 1.8780001
-0.52548611 -0.47425956 1.8880002
-0.5259583 -0.46694148 1.8880002
-0.52465993 -0.45442986 1.8880001
-0.52548617 -0.44616747 1.8880002
-0.53187197 -0.52522361 1.899
-0.53519619 -0.51635903 1.899
-0.53298008 -0.50527835 1.899
-0.53187197 -0.49530575 1.899
-0.53187197 -0.48533314 1.899
-0.5368582 -0.47369844 1.899
-0.5368582 -0.465388 1.899
-0.5368582 -0.45541534 1.899
-0.54469782 -0.52464765 1.9090002
-0.53801441 -0.52464759 1.9090002
-0.54511553 -0.5142048 1.9090002
-0.53801441 -0.51462251 1.909
-0.53801441 -0.50459743 1.9090002
-0.53391254 -0.64530438 1.9200002
-0.54023761 -0.77468038 1.9410001
-0.54193652 -0.74410093 1.9410002
-0.54193652 -0.7339077 1.9410002
-0.61541218 -0.66595328 1.9410001
-0.61725265 -0.64330184 1.9410002
-0.61583692 -0.63622326 1.9410001
-0.62530667 -0.67656136 1.9520001
-0.62530667 -0.66289341 1.9520001
-0.63214064 -0.6560595 1.9520001
-0.63384914 -0.64580852 1.9520001
-0.62644571 -0.64694756 1.9520001
-0.61676425 -0.64922553 1.9520001
-0.61367989 -0.78214097 1.9640001
-0.63430774 -0.65493566 1.9640001
-0.62915081 -0.65665466 1.9640001
-0.62230283 -0.82282263 1.9750001
-0.61884558 -0.82282263 1.9750001
-0.62230283 -0.81417954 1.9750001
-0.61884558 -0.81936538 1.9750001
-0.62230289 -0.80553645 1.9750001
-0.61884558 -0.80553645 1.9750001
-0.62230283 -0.79862195 1.9750001
