# .PCD v0.7 - Point Cloud Data file format
VERSION 0.7
FIELDS x y z
SIZE 4 4 4
TYPE F F F
COUNT 1 1 1
WIDTH 699
HEIGHT 1
VIEWPOINT 0 0 0 1 0 0 0
POINTS 699
DATA ascii
-0.18385154 0.708718 1.6940001
-0.17421417 0.7079767 1.6940001
-0.16803634 0.70772958 1.6940001
-0.19571292 0.71168339 1.6940001
-0.18533421 0.71168339 1.6940001
-0.17495549 0.71168345 1.6940001
-0.16754213 0.71168339 1.6940001
-0.16535398 0.6584366 1.702
-0.16535401 0.66439533 1.7019999
-0.15577751 0.66396976 1.702
-0.17578173 0.67482316 1.7019999
-0.16525468 0.6747238 1.7019999
-0.15591937 0.67432648 1.7019999
-0.18429415 0.68439955 1.702
-0.17503689 0.6830163 1.702
-0.1832301 0.69716817 1.702
-0.17429206 0.69716817 1.702
-0.18444891 0.70502281 1.7019999
-0.1754507 0.70478207 1.7019999
-0.16510572 0.70536137 1.7019999
-0.16237465 0.71355456 1.702
-0.48145756 0.51606232 1.7190001
-0.47844845 0.51606232 1.7190001
-0.39720249 0.52508962 1.7190001
-0.50252134 0.54765797 1.7190001
-0.49499854 0.54765797 1.7190001
-0.47883266 0.54637659 1.7150002
-0.32347929 0.54314435 1.7190001
-0.31896564 0.54314435 1.7190001
-0.49650311 0.55217165 1.7190001
-0.47243023 0.55217165 1.7190001
-0.46942112 0.55367625 1.7190002
-0.35808405 0.55066711 1.7190001
-0.18270145 0.64993793 1.7110001
-0.16473082 0.64844042 1.7110002
-0.17480527 0.65592819 1.7110003
-0.16473083 0.65592813 1.7110002
-0.16173571 0.66191834 1.7110001
-0.15499671 0.66341591 1.7110001
-0.46784568 0.45877108 1.728
-0.45221722 0.45977935 1.728
-0.48246586 0.46885395 1.728
-0.4749037 0.46582907 1.728
-0.45440182 0.46549299 1.7279999
-0.4643167 0.47490367 1.728
-0.43255559 0.47792855 1.728
-0.43255559 0.48095343 1.728
-0.46280423 0.50515234 1.728
-0.55052531 0.51422691 1.728
-0.49305287 0.51725179 1.728
-0.48246586 0.51271451 1.728
-0.18527293 0.51649553 1.728
-0.16939239 0.51725179 1.728
-0.083183765 0.51422691 1.728
-0.55173534 0.52269655 1.728
-0.49910259 0.52935123 1.728
-0.46616518 0.52599031 1.7279999
-0.45675451 0.52753633 1.728
-0.3070237 0.52935123 1.728
-0.23291455 0.52027667 1.728
-0.19964103 0.52783883 1.728
-0.18413861 0.52292341 1.7279999
-0.17544214 0.52209157 1.728
-0.16787997 0.52027667 1.728
-0.45675448 0.53540105 1.7279999
-0.40533182 0.53388858 1.728
-0.31372166 0.53583312 1.728
-0.30702373 0.53540099 1.728
-0.24350157 0.53464472 1.728
-0.23593941 0.53540099 1.728
-0.45565459 0.54475057 1.728
-0.36600858 0.54598796 1.728
-0.3629837 0.55052531 1.728
0.28584969 0.59589827 1.728
0.28584969 0.60497284 1.728
0.7847842 0.65236235 1.7279999
0.72747982 0.67454475 1.728
0.73352957 0.67303228 1.728
0.7441166 0.67756957 1.728
0.78747296 0.68160272 1.728
-0.48014119 0.41936383 1.7360001
-0.4755829 0.41936383 1.7360001
-0.47710234 0.42240268 1.7360001
-0.55003518 0.43759704 1.7360001
-0.54395747 0.4357737 1.7360001
-0.54395741 0.44367477 1.7360001
-0.48621893 0.44975251 1.7360001
-0.47203755 0.44873959 1.7360001
-0.46555462 0.44853696 1.7360001
-0.45583028 0.44975251 1.7360001
-0.50445217 0.4588691 1.7360001
-0.48257229 0.45522246 1.7360001
-0.47444329 0.45545042 1.7360001
-0.46494681 0.45583025 1.7360001
-0.45583025 0.45583025 1.7360001
-0.446376 0.45616791 1.7360001
-0.43759704 0.4588691 1.7360001
-0.50141329 0.46190798 1.7360001
-0.4983744 0.46190798 1.7360001
-0.48280019 0.46532667 1.7360001
-0.47507641 0.46545333 1.7360001
-0.45886913 0.46342742 1.7360001
-0.44519421 0.46494681 1.7360001
-0.43759704 0.46494687 1.7360001
-0.41632497 0.46798572 1.7360001
-0.50401807 0.47493172 1.7360002
-0.49533552 0.47406346 1.7360001
-0.48561117 0.47467121 1.7360001
-0.47406346 0.47406346 1.7360001
-0.46190798 0.47406346 1.7360001
-0.45626441 0.47493172 1.7360002
-0.44519418 0.47406346 1.7360001
-0.43493801 0.47444329 1.7360001
-0.2355123 0.4755829 1.7360001
-0.49533555 0.48428512 1.7360001
-0.48393977 0.48469949 1.7360001
-0.47406346 0.48469949 1.7360001
-0.46460915 0.48588127 1.7360001
-0.45583022 0.48469949 1.7360001
-0.44584537 0.48426539 1.7360002
-0.43455815 0.48530728 1.7360001
-0.24108355 0.48621893 1.7360001
-0.23399284 0.48469949 1.7360001
-0.45583025 0.49533552 1.7360001
-0.44709352 0.49533555 1.7360001
-0.24159002 0.49381611 1.7360001
-0.23399284 0.49533552 1.7360001
-0.1938798 0.49715886 1.7360001
-0.18613069 0.49761468 1.7360001
-0.17564659 0.49776664 1.7360001
-0.24159002 0.50445217 1.7360001
-0.23399284 0.50445217 1.7360001
-0.19448757 0.50445217 1.7360001
-0.18537095 0.50445217 1.7360001
-0.17473494 0.50445223 1.7360001
-0.17473494 0.51356882 1.7360001
-0.16477418 0.51626998 1.7360001
-0.15650171 0.51812702 1.7360001
-0.083568878 0.51356876 1.7360001
-0.079010576 0.51356876 1.7360001
0.03444051 0.51964653 1.7360001
0.057738498 0.51812702 1.7360001
0.060777366 0.51964647 1.7360001
-0.16257945 0.52268535 1.7360001
-0.1549823 0.52268541 1.7360001
-0.14890455 0.52268535 1.7360001
0.024310946 0.52572423 1.7360001
0.035361379 0.52544796 1.7360001
0.056522954 0.52633202 1.7360001
0.060777366 0.52724361 1.7360001
0.03646642 0.53180194 1.7360001
0.056219064 0.53180194 1.7360001
0.064196087 0.5359804 1.7360001
0.074452274 0.53787971 1.7360001
0.069893971 0.54091859 1.7360001
0.14586568 0.5469963 1.7360001
0.15194342 0.5469963 1.7360001
0.12307417 0.55915177 1.7360001
0.392014 0.55915177 1.7360001
0.12398583 0.56401396 1.7360001
0.65153331 0.60534257 1.7360001
0.808339 0.63512349 1.7360001
0.81289726 0.63664293 1.7360001
0.76427537 0.6449998 1.7360001
0.77491146 0.64424014 1.7360002
0.78402805 0.64525306 1.7360001
0.79213166 0.64626598 1.7360001
0.8123908 0.64221418 1.7360001
0.77317494 0.65509313 1.7360002
0.78554744 0.65031779 1.7360001
0.79557574 0.65092558 1.7360001
0.80428714 0.65436965 1.7360001
-0.48540732 0.36544397 1.7450002
-0.48530322 0.37571859 1.745
-0.48568502 0.38488248 1.745
-0.47835395 0.3854934 1.7450001
-0.46430266 0.3879371 1.7450001
-0.48568502 0.39404634 1.745
-0.48568499 0.40473753 1.7450002
-0.45513874 0.40473753 1.7450002
-0.41644686 0.40422839 1.745
-0.54066825 0.41237408 1.7450001
-0.48568502 0.41542867 1.745
-0.48606688 0.42497435 1.745
-0.48568499 0.43528372 1.7450002
-0.24335162 0.43630195 1.7450001
-0.47957578 0.45208418 1.7450001
-0.22604208 0.45666608 1.7450001
-0.21473996 0.45574966 1.7450001
-0.20465973 0.45666608 1.7450001
-0.24284253 0.46430263 1.7450001
-0.091638684 0.46735728 1.7450001
-0.24393348 0.47433934 1.7450001
-0.12523955 0.4780485 1.7450001
-0.11454836 0.47728482 1.7450001
-0.10232987 0.47448477 1.7450001
0.012982147 0.47575751 1.7450001
0.015273115 0.48612145 1.7450001
-0.1741135 0.49484894 1.745
0.016145865 0.49441254 1.7450001
-0.16494964 0.50401276 1.745
0.015273114 0.50095814 1.7450001
0.062619768 0.50706738 1.7450001
0.076365568 0.50706738 1.7450001
0.085529439 0.50706738 1.7450001
0.025658831 0.51745313 1.7450001
0.034109958 0.5157221 1.7450002
0.045819342 0.51806402 1.7450001
0.055746861 0.51470393 1.745
0.063869387 0.51512045 1.7450002
0.085529439 0.51164931 1.7450001
0.094082378 0.51439852 1.7450001
0.065019839 0.52539515 1.7450001
0.073310949 0.52488601 1.7450001
0.094693303 0.52234048 1.7450001
0.39302814 0.56714165 1.7450002
0.46735728 0.57426906 1.7450001
0.63536155 0.57732373 1.7450001
0.80336583 0.57426906 1.7450001
0.63637984 0.58597851 1.7450001
0.80598408 0.5843057 1.7450001
0.64452547 0.59565145 1.745
0.65165287 0.59666967 1.7450002
0.6449073 0.60443348 1.745
0.6513983 0.60405165 1.7450001
0.87464035 0.61245185 1.7450001
0.82245719 0.63612521 1.7450001
-0.47652254 0.31532776 1.7539999
-0.47529441 0.33589929 1.7540001
-0.47437328 0.34388226 1.7540001
-0.46976772 0.34541744 1.7540001
-0.49126035 0.35462856 1.7540001
-0.48484048 0.3542099 1.7539999
-0.46772084 0.3561638 1.7540001
-0.45595104 0.35923415 1.7540001
-0.41143057 0.35616377 1.7540001
-0.40759256 0.35693133 1.7540001
-0.39485055 0.35739192 1.7540001
-0.38302958 0.35846657 1.7540001
-0.3776564 0.35923415 1.7540001
-0.29475623 0.35769898 1.7540001
-0.49494481 0.36598897 1.7540001
-0.48204923 0.36230451 1.7540001
-0.46516213 0.36537492 1.7539999
-0.45441586 0.36537489 1.7539999
-0.44673991 0.36844528 1.7540001
-0.41347748 0.36435145 1.7540001
-0.38413832 0.36503372 1.7539999
-0.37496984 0.36575869 1.7539999
-0.36537489 0.36537489 1.7539999
-0.50047147 0.3776564 1.7540001
-0.49520802 0.37502468 1.7540001
-0.45441586 0.37458605 1.7539999
-0.37420225 0.37420225 1.7539999
-0.36537489 0.37458605 1.7539999
-0.31471366 0.39914906 1.7540001
-0.19957453 0.42678246 1.7540001
-0.16457222 0.42739654 1.7540001
-0.13509659 0.42678243 1.7539999
-0.22413754 0.43906394 1.7540001
-0.21404918 0.43643224 1.7540001
-0.20755751 0.43660766 1.7540001
-0.19957453 0.43599355 1.7540001
0.082900189 0.43752876 1.7540001
-0.20609908 0.44482091 1.7539999
-0.19727175 0.44290191 1.7540001
-0.038379714 0.4436695 1.7540001
0.085970566 0.44520473 1.7539999
0.094158232 0.44622821 1.7540001
0.075224243 0.45441586 1.7539999
0.085586764 0.45403203 1.7539999
0.0056290249 0.4672091 1.7540001
0.061407544 0.4605566 1.7540001
0.077527024 0.46362698 1.7540001
0.083923653 0.46260354 1.7540001
0.59503907 0.49371669 1.7540001
0.54740441 0.51582336 1.7540001
0.63495409 0.51705152 1.7540001
0.55650586 0.5242669 1.7540001
0.60793471 0.52196413 1.7540001
0.62465125 0.52537566 1.7539999
0.64477921 0.52349931 1.7540001
0.69390529 0.5281049 1.7540001
0.55573827 0.53117526 1.7540001
0.69544047 0.53271043 1.7540001
0.700046 0.53424567 1.7540001
-0.53698695 0.27775186 1.7630001
-0.4845227 0.28348324 1.7630002
-0.52640599 0.29538691 1.7630002
-0.48143658 0.29523993 1.7630002
-0.46562013 0.29395404 1.7630002
-0.45777622 0.29523996 1.7630002
-0.46291977 0.30707011 1.7630001
-0.45586574 0.30464527 1.7630002
-0.44671756 0.30475551 1.7630001
-0.43411589 0.3050127 1.7630002
-0.4289723 0.30244091 1.7630001
-0.48555142 0.31478545 1.7630002
-0.46600589 0.31478545 1.7630002
-0.45983362 0.31632853 1.7630001
-0.44748911 0.31324238 1.7630001
-0.42712066 0.31416821 1.7630001
-0.48760882 0.32095769 1.7630001
-0.46549159 0.32507256 1.7630002
-0.45983362 0.32404384 1.7630001
-0.42485747 0.32301515 1.7630002
-0.41971391 0.32404384 1.7630001
-0.49480978 0.33433095 1.7630002
-0.48452273 0.33594748 1.7630002
-0.46512416 0.33330226 1.7630002
-0.45551309 0.33515391 1.7630005
-0.37389681 0.33496395 1.7630004
-0.36416361 0.33577114 1.7630004
-0.40428329 0.34718984 1.7630002
-0.39605355 0.34667549 1.7630002
-0.37479356 0.34598967 1.7630002
-0.36570662 0.34718981 1.7630001
-0.40428329 0.35490516 1.7630002
0.0046291975 0.36416352 1.7630004
0.0041883215 0.3743037 1.7630005
0.18516792 0.40384242 1.7630002
0.44748911 0.44594604 1.7630001
0.46909204 0.44440296 1.7630001
0.61491179 0.44594604 1.7630001
0.4567475 0.4544329 1.7630001
0.46291977 0.45520443 1.7630001
0.50303948 0.45983362 1.7630001
0.43823072 0.46291977 1.7630001
0.45057523 0.46291977 1.7630001
0.50303948 0.46600589 1.7630002
0.56784827 0.46909204 1.7630001
0.59562343 0.4649772 1.7630002
0.5749023 0.47482342 1.7630002
0.58440113 0.47554487 1.7630004
0.60642493 0.47526431 1.7630002
0.73295629 0.47680736 1.7630001
0.74067163 0.47835043 1.7630001
0.57710665 0.48143655 1.7630001
0.59408033 0.4845227 1.7630001
0.60488188 0.48246527 1.7630002
0.73655677 0.48349398 1.7630002
-0.47487062 0.22502778 1.7720001
-0.46567065 0.23574337 1.7720002
-0.49630183 0.25435469 1.7720001
-0.32569808 0.25391155 1.7720003
-0.53662634 0.26831317 1.7720002
-0.49371693 0.26314336 1.7720002
-0.48451462 0.26800299 1.7720002
-0.46483982 0.27695414 1.7720003
-0.45597729 0.27606788 1.7720002
-0.4963018 0.2838226 1.7720001
-0.48699614 0.28692448 1.7720001
-0.47148672 0.28227165 1.7720001
-0.46528295 0.28227165 1.7720001
-0.45509106 0.28493041 1.7720003
-0.44512066 0.28537351 1.7720001
0.45636502 0.38424617 1.7720002
0.59556222 0.38374767 1.7720003
0.45701128 0.39187163 1.7720001
0.31122261 0.40427917 1.7720001
0.67497039 0.40448603 1.772
0.69420213 0.40479618 1.7720002
0.54593205 0.41410184 1.7720002
0.56376785 0.41642821 1.7720001
0.58263767 0.4151358 1.7720002
0.6145612 0.41565278 1.7720002
0.65604895 0.41410181 1.7720001
0.66380358 0.41565275 1.7720002
0.67379868 0.41634205 1.7720002
0.68474138 0.41565275 1.7720001
0.69482255 0.41255087 1.7720001
0.58160365 0.42185652 1.7720001
0.66380364 0.42495841 1.7720002
0.67517722 0.42426911 1.7720002
0.68241495 0.42185652 1.7720001
0.58935839 0.43736595 1.7720001
0.62580556 0.43193763 1.7720001
0.63536972 0.4332301 1.7720002
0.6638037 0.43116221 1.7720001
0.71420932 0.43426406 1.7720001
0.71653575 0.44046783 1.7720001
0.74135083 0.48079237 1.7720001
-0.47388142 0.19952902 1.7810001
-0.4645285 0.19952902 1.7810001
-0.49609458 0.20537458 1.7810001
-0.45455202 0.20638783 1.7810001
-0.49570486 0.2151172 1.7810001
-0.48479316 0.21511725 1.7810001
-0.47388139 0.21511722 1.7810001
-0.4649182 0.21472752 1.7810001
-0.45517555 0.2151172 1.7810001
-0.49659568 0.22402477 1.7810003
-0.48596227 0.22408041 1.7810001
-0.45478585 0.22408041 1.7810001
-0.55182242 0.2369407 1.7810001
-0.50349897 0.23382306 1.7810001
-0.45361674 0.23382305 1.7810001
-0.31488171 0.23382306 1.7810001
-0.31436211 0.25512695 1.7810001
-0.30615231 0.25377592 1.7810001
0.52584207 0.33410716 1.7810001
0.5299989 0.34294048 1.7810001
0.53727341 0.3455385 1.7810001
0.63288105 0.34917575 1.7810001
0.48465145 0.35569444 1.7810001
0.50427842 0.35774928 1.7810001
0.51378721 0.3572816 1.7810001
0.54558706 0.35541102 1.7810001
0.58299881 0.35541105 1.7810001
0.60638112 0.35385221 1.7810001
0.6141752 0.35437185 1.7810001
0.67251974 0.35585645 1.7810003
0.56429303 0.36788163 1.7810001
0.67403394 0.36476395 1.7810001
0.5666312 0.37333748 1.7810001
0.57416552 0.3741169 1.7810001
0.58486938 0.37474042 1.7810001
0.57364589 0.38580805 1.7810001
0.71082211 0.39438155 1.7810001
0.70458686 0.40529329 1.7810003
-0.50134325 0.134736 1.7900002
-0.53267717 0.17860353 1.7900001
0.115488 0.2842437 1.7900002
0.12572749 0.2847473 1.7900001
0.13384074 0.2855866 1.7900002
0.56166112 0.28592232 1.7900001
0.13630271 0.29453918 1.7900002
0.44494212 0.30707273 1.7900002
0.58594495 0.3044616 1.7900002
0.59691179 0.31490621 1.7900001
0.41987497 0.32273972 1.7900001
0.42614174 0.32587308 1.7900001
0.43397522 0.32587311 1.7900002
0.62265038 0.33527333 1.7900002
0.61727887 0.34467348 1.7900001
0.62197894 0.34154007 1.7900001
-0.39573139 0.13560294 1.8067501
-0.38633186 0.15516607 1.8090003
-0.36533704 0.16434109 1.8011252
-0.35815233 0.1711989 1.8000001
0.88855386 0.30248642 1.8000001
0.90430832 0.31193912 1.8000001
-0.51583385 0.063683189 1.819
-0.51583385 0.074827746 1.8190001
0.44487262 0.2042411 1.8190002
0.44623724 0.21242894 1.8190002
-0.51678616 0.0047998708 1.8280001
-0.51800454 -0.045043871 1.8380001
-0.39534038 -0.035793789 1.8380002
-0.38769901 -0.036195964 1.8380001
0.17374066 0.0637049 1.8380002
0.18017547 0.064348385 1.8380001
0.80757225 0.14478385 1.8380001
0.81354743 0.14478385 1.8380003
0.50674355 0.1673058 1.8380001
0.51156962 0.1673058 1.8380001
0.50553697 0.17414281 1.8380002
0.51156962 0.17374063 1.8380001
0.51156962 0.18017547 1.8380001
-0.48523864 -0.10998742 1.848
0.074403256 -0.0097047724 1.848
0.085725494 -0.0097047724 1.848
0.090577878 -0.0097047724 1.848
0.53699744 0.033966705 1.848
0.53699744 0.045288939 1.848
0.55317205 0.043671478 1.848
0.769912 0.08410804 1.848
0.77314693 0.084108032 1.848
0.79902637 0.10459588 1.848
0.811966 0.10998742 1.848
-0.58543724 -0.1780705 1.858
-0.57567996 -0.17888361 1.8580002
-0.40619227 -0.1145578 1.858
0.43647599 -0.027320405 1.858
0.44612485 -0.027103579 1.858
0.47485468 -0.026019435 1.858
0.48406991 -0.025477363 1.858
0.49436924 -0.02439322 1.858
0.45534009 -0.019514576 1.8580002
0.46556202 -0.017191414 1.858
0.47485468 -0.019514576 1.8580002
0.46753669 -0.0056917514 1.858
0.50737894 0.0048786439 1.858
0.57568002 0.016262148 1.858
0.68788874 0.019514576 1.858
0.69732082 0.017563118 1.858
0.70577717 0.016262146 1.858
0.58868968 0.026019435 1.8580002
0.59519452 0.026019437 1.858
0.67487901 0.026019435 1.858
0.68626261 0.026019435 1.858
0.69601989 0.026019435 1.858
0.73504901 0.026425989 1.8579999
0.74439973 0.026425989 1.8579999
0.77407813 0.026019434 1.858
0.59519458 0.034847453 1.858
0.60495186 0.035370164 1.8579999
0.67325282 0.03382526 1.858
0.68544942 0.033337399 1.858
0.69601983 0.032524295 1.8580002
0.72529173 0.035776723 1.858
0.62555063 0.044449866 1.858
0.6342237 0.045534007 1.858
0.67000043 0.048786439 1.858
0.70686126 0.046618156 1.858
0.71553445 0.045534004 1.858
0.73551357 0.044604741 1.858
0.74155384 0.045534007 1.858
0.6634956 0.055291295 1.858
0.67390329 0.055616539 1.858
0.68544948 0.056917511 1.858
0.69656193 0.055833369 1.858
0.75456357 0.056917511 1.858
0.80009758 0.058543727 1.858
0.88249248 0.05637544 1.8580002
0.75456357 0.063422367 1.858
0.77407807 0.065455139 1.8579999
0.76540506 0.07589002 1.858
-0.61428046 -0.20694011 1.8680001
-0.61420262 -0.19728604 1.868
-0.26649964 -0.15041697 1.868
-0.27467445 -0.1438771 1.868
-0.26649964 -0.14387712 1.868
-0.31391367 -0.13243234 1.868
-0.2831763 -0.13341331 1.868
-0.27560872 -0.13453445 1.8680001
-0.26649964 -0.13733724 1.868
-0.10136796 -0.13079737 1.868
-0.304571 -0.12519178 1.8680001
0.55752373 -0.053953908 1.868
0.49376005 -0.042509142 1.868
0.5035699 -0.043817114 1.868
0.51546055 -0.045481812 1.868
0.45533833 -0.036786761 1.868
0.47468543 -0.037059255 1.868
0.48558521 -0.039239209 1.868
0.51534164 -0.035642285 1.868
0.38748717 -0.022889538 1.868
0.45452085 -0.029429408 1.868
0.47577542 -0.025341989 1.868
0.48395026 -0.026159473 1.868
0.51456875 -0.02645674 1.868
0.71611565 -0.022889538 1.868
0.72545826 -0.025225209 1.8680001
0.73737013 -0.024524506 1.868
0.38748717 -0.019619605 1.868
0.51337969 -0.01634967 1.868
0.71611565 -0.016349671 1.868
0.7263341 -0.015940929 1.868
0.73573518 -0.016349668 1.868
0.74647927 -0.015882537 1.8680001
0.7553547 -0.01634967 1.868
0.78151423 -0.014714703 1.868
0.51436067 -0.0058858814 1.868
0.73573524 -0.0065398682 1.868
0.74554503 -0.0065398687 1.8680001
0.76679957 -0.0065398682 1.868
0.65529484 0.0026159473 1.868
0.67556834 0.0026159473 1.868
0.7193855 0.0032699341 1.868
0.72592539 0.0049049007 1.868
0.74524778 0.0044590011 1.868
0.75494599 0.0036786757 1.868
0.73769712 0.015695686 1.868
0.74595374 0.015940931 1.868
0.7548877 0.017283939 1.8680001
0.61474764 0.026159473 1.868
0.62128747 0.026159473 1.868
0.73900509 0.02288954 1.868
0.6850512 0.045779079 1.868
0.68668622 0.054280907 1.868
-0.26792631 -0.23505193 1.8780001
-0.22354589 -0.23833936 1.8780001
-0.26792631 -0.22683333 1.8780001
0.55393356 -0.092048302 1.8780001
0.7046079 -0.097527377 1.8780001
0.71542907 -0.095746674 1.8780001
0.54407126 -0.08711715 1.8780001
0.55393356 -0.088760868 1.8780001
0.75611109 -0.088760875 1.8780001
0.52270287 -0.078898549 1.8780001
0.75282365 -0.06903623 1.8780001
0.7840544 -0.065748796 1.8780001
0.73967385 -0.05588647 1.8780001
0.74624878 -0.055886474 1.878
0.75282365 -0.059173912 1.8780001
0.7840544 -0.055886474 1.8780001
0.78405434 -0.049311593 1.8780001
0.78460228 -0.024107888 1.8780001
-0.29414007 -0.29414007 1.8880002
-0.31066477 -0.28422523 1.8880001
-0.30515653 -0.2853269 1.8880002
-0.29414007 -0.28422523 1.8880002
-0.29414004 -0.27761537 1.8880002
-0.18507689 -0.25778565 1.8880001
0.2082115 -0.21482138 1.8880001
0.21316892 -0.21482138 1.8880001
0.24126095 -0.20490655 1.8880001
0.19168678 -0.18507689 1.8880001
0.59819496 -0.17516205 1.8880002
0.60480481 -0.17516206 1.8880002
0.59489 -0.16855216 1.8880001
0.60480481 -0.16772592 1.8880001
0.64314216 -0.16656919 1.8880001
0.63322735 -0.15599339 1.8880001
0.64115924 -0.15698487 1.8880001
0.63234603 -0.14431591 1.8880002
0.63124436 -0.13550273 1.8880002
0.63124436 -0.12889282 1.8880001
0.56184053 -0.092538446 1.8880001
0.77170449 -0.092538446 1.8880001
0.76674712 -0.089233495 1.8880001
0.77335703 -0.089233503 1.8880002
-0.47536057 -0.36566195 1.899
-0.30250219 -0.32244736 1.899
-0.29490399 -0.31579897 1.8990002
0.47425246 -0.25540936 1.899
0.47702265 -0.24931498 1.899
0.52300745 -0.23712626 1.899
0.56843817 -0.23768029 1.899
0.59503174 -0.20776248 1.899
0.62494951 -0.20277618 1.899
0.71470296 -0.20610039 1.8989999
0.72467548 -0.20610039 1.8989999
0.62494951 -0.19612779 1.899
0.65486735 -0.19280358 1.899
0.69475776 -0.19612779 1.8989999
0.70425546 -0.19707757 1.8990002
0.56511396 -0.18781728 1.899
0.60832852 -0.18449309 1.899
0.61497694 -0.18283099 1.899
0.62328744 -0.18449309 1.899
0.67813677 -0.18947938 1.899
0.68478513 -0.18615519 1.899
0.69558877 -0.18781728 1.899
0.70140612 -0.18947938 1.899
0.71636504 -0.18615519 1.899
0.61663902 -0.17950678 1.899
0.63159794 -0.17784467 1.899
0.69808191 -0.17950678 1.899
0.70140612 -0.17784467 1.899
0.71359491 -0.17839871 1.899
0.62605757 -0.16731805 1.899
0.70306826 -0.16953419 1.899
0.41771308 -0.30743682 1.909
0.46115524 -0.2907283 1.909
0.48677501 -0.29184222 1.9090002
0.51796424 -0.29407001 1.909
0.53133106 -0.29407001 1.9090002
0.48705345 -0.28404486 1.909
0.50236964 -0.28181708 1.9090002
0.44444671 -0.27234894 1.909
0.46282607 -0.27736148 1.909
0.47702834 -0.27318436 1.909
0.49590895 -0.27468809 1.909
0.50459743 -0.27602482 1.909
0.52798933 -0.27067807 1.909
0.53133106 -0.27234894 1.909
0.44444671 -0.26733637 1.909
0.47452205 -0.26733637 1.9090002
0.4828763 -0.26399466 1.909
0.51629341 -0.2623238 1.909
0.52798933 -0.26399469 1.9090002
0.53133106 -0.26399469 1.9090002
0.62155706 -0.26733637 1.909
0.47786376 -0.25731125 1.909
0.4828763 -0.25731125 1.909
0.68839115 -0.24394444 1.909
0.78596896 -0.24260776 1.909
0.6549741 -0.23726103 1.909
0.72626388 -0.23503324 1.9090002
0.78864229 -0.23057762 1.909
0.79365486 -0.22389421 1.909
0.42012003 -0.3529008 1.9200001
0.4974221 -0.34785938 1.9200001
0.51422691 -0.34659904 1.9200001
0.44028577 -0.3192912 1.9200001
0.82679617 -0.26887682 1.9200001
-0.61519927 -0.53745431 1.9310001
-0.29069856 -0.5154829 1.9310001
-0.2754876 -0.51379275 1.9310001
-0.29407877 -0.50703233 1.9310001
-0.28393811 -0.50703233 1.9310001
0.39506271 -0.40520337 1.931
0.39548525 -0.39717537 1.9310001
0.40224567 -0.39886546 1.9310001
0.52664673 -0.46548778 1.9410002
0.52664673 -0.45869231 1.9410001
0.53117704 -0.45755976 1.9410002
-0.56550956 -0.64922553 1.9520001
0.51938039 -0.52963132 1.9520001
-0.59477103 -0.72541434 1.9640001
-0.59305197 -0.71853834 1.9640001
-0.58273804 -0.71853834 1.9640001
-0.62915081 -0.67040658 1.9640001
0.12204838 -0.64462173 1.9640001
-0.4546268 -0.78479302 1.9750001
0.14253622 -0.69182217 1.9860001
0.45117742 -0.74846482 1.9980001
