# .PCD v0.7 - Point Cloud Data file format
VERSION 0.7
FIELDS x y z
SIZE 4 4 4
TYPE F F F
COUNT 1 1 1
WIDTH 276
HEIGHT 1
VIEWPOINT 0 0 0 1 0 0 0
POINTS 276
DATA ascii
-0.16457744 -0.0020546499 0.93900007
-0.14932914 -0.0028895936 0.93848246
-0.12905651 -0.0045601255 0.93808138
-0.11323353 -0.0046089906 0.93867344
-0.15011555 0.0097549092 0.93133128
-0.12980239 0.0097880857 0.92821229
-0.11006604 0.0098223425 0.93104291
-0.092006698 0.013129674 0.93497103
-0.089451142 0.030084385 0.92926878
-0.076931849 0.031711478 0.93841648
-0.12775132 -0.040457394 0.95900005
-0.11835045 -0.040289514 0.95900005
-0.16633271 -0.023328828 0.95705122
-0.14908895 -0.028394083 0.95607096
-0.13021486 -0.030142639 0.95480943
-0.11017661 -0.02985459 0.95336229
-0.091346264 -0.02632945 0.95634079
-0.078060925 -0.020144757 0.95900005
-0.18652683 -0.0064315828 0.95563996
-0.17037167 -0.010571131 0.94992924
-0.15023968 -0.012588032 0.94643849
-0.13063027 -0.014114564 0.94430494
-0.10859209 -0.013144914 0.9427219
-0.090408407 -0.010501646 0.94885838
-0.073840268 -0.0078759966 0.95547426
-0.10048045 0 0.94100004
-0.086889729 0.0046818811 0.94264549
-0.07038106 0.0099591399 0.95136648
-0.067300804 0.029908927 0.94900048
-0.058018573 0.029727999 0.95871407
-0.066750683 0.050125148 0.94871867
-0.058215618 0.048565328 0.95874989
-0.14095378 -0.062202271 0.97800004
-0.12892671 -0.063539863 0.97586101
-0.10953325 -0.065271661 0.97486174
-0.09278094 -0.064489439 0.97557163
-0.1664128 -0.044889629 0.97488385
-0.14928451 -0.049366694 0.97000813
-0.13027105 -0.050590046 0.96667671
-0.10993197 -0.050038092 0.96608412
-0.089824997 -0.050050452 0.96981126
-0.071872503 -0.047848549 0.97498935
-0.1855485 -0.026026081 0.97304565
-0.17146063 -0.032325786 0.96750563
-0.15411794 -0.036392059 0.96277779
-0.10272285 -0.038731568 0.96200007
-0.087427564 -0.034969307 0.96330214
-0.070202984 -0.029803816 0.96829611
-0.056454033 -0.027534075 0.97556013
-0.20539366 -0.0075036613 0.97399998
-0.1924272 -0.013106902 0.9665693
-0.065561086 -0.012538373 0.9640494
-0.05328922 -0.0097671915 0.97192311
-0.19870977 0 0.96200007
-0.060623325 0.0047151474 0.96200007
-0.052598689 0.0087984372 0.96973807
-0.052115727 0.029118402 0.96894467
-0.05454585 0.049319118 0.96804374
-0.05628961 0.067215227 0.97022516
-0.14380285 -0.081861854 0.99675006
-0.12848799 -0.087481059 0.99449378
-0.11003517 -0.089515902 0.99396622
-0.089531869 -0.090138391 0.9925493
-0.071501888 -0.086934701 0.9954077
-0.058233306 -0.08152663 0.99800009
-0.1658828 -0.066075549 0.99487495
-0.15025274 -0.069862723 0.99028075
-0.13016273 -0.073418655 0.98616302
-0.1103256 -0.075371675 0.98326218
-0.088718005 -0.073068485 0.98271966
-0.070223905 -0.069918089 0.98891348
-0.054232635 -0.067940421 0.99471658
-0.18477021 -0.046132158 0.99366653
-0.17191623 -0.053074811 0.98677438
-0.15739587 -0.05739155 0.98159999
-0.06424059 -0.053469494 0.9821707
-0.050018452 -0.049722545 0.99208885
-0.03843398 -0.042801477 0.99800003
-0.20304082 -0.027207151 0.99140006
-0.19325517 -0.031789783 0.98831588
-0.047265347 -0.031562872 0.98711133
-0.037746299 -0.02710831 0.9952963
-0.21057935 -0.012072091 0.98178977
-0.043830179 -0.01134849 0.98436582
-0.038299628 -0.01058741 0.99318749
-0.04291806 0.011581186 0.9864186
-0.039063215 0.004816703 0.9935385
-0.044808779 0.030505966 0.98822725
-0.04842199 0.049320005 0.98513049
-0.049988724 0.064259209 0.98276478
-0.12307942 -0.1217416 1.0190001
-0.10856592 -0.12342428 1.017629
-0.090637885 -0.12543432 1.0173042
-0.070232838 -0.12369631 1.017976
-0.058269482 -0.12189025 1.0190001
-0.14600553 -0.1047909 1.0171473
-0.12932591 -0.10910384 1.0124416
-0.10973064 -0.11006997 1.0075794
-0.089752041 -0.11037244 1.0075097
-0.069708332 -0.10987869 1.011441
-0.052808017 -0.108706 1.0167122
-0.16531 -0.086567685 1.0138575
-0.15073512 -0.090702787 1.0080779
-0.13309616 -0.095680699 1.0031817
-0.11074225 -0.099878289 1.0010002
-0.09549766 -0.099878281 1.001
-0.067269117 -0.095219068 1.0025384
-0.049936827 -0.090506993 1.0095479
-0.036857899 -0.087873496 1.0175004
-0.18647423 -0.066238292 1.0170003
-0.17269064 -0.072849691 1.0081114
-0.15595031 -0.078851275 1.001
-0.04527865 -0.072080977 1.0039078
-0.033379987 -0.069072887 1.0144026
-0.19272932 -0.050225385 1.0087001
-0.041414559 -0.0568601 1.0025002
-0.032285046 -0.05049222 1.0103668
-0.19800432 -0.038549513 1.001
-0.03205853 -0.031451069 1.00925
-0.032580495 -0.010077738 1.0121249
-0.033330239 0.0098270485 1.0112973
-0.040879536 0.030360127 1.0017501
-0.035868365 0.027290255 1.0083784
-0.040422551 0.040422551 1.0040001
-0.108161 -0.14589453 1.0328684
-0.090405516 -0.14755705 1.0329326
-0.07058455 -0.14657988 1.0316373
-0.056034829 -0.1454761 1.0347501
-0.14479128 -0.12368919 1.0332859
-0.12935123 -0.12911341 1.0291252
-0.11092315 -0.13296941 1.0258632
-0.088672847 -0.1349948 1.0244255
-0.069541864 -0.1334026 1.0251741
-0.050242379 -0.13011399 1.029333
-0.036105901 -0.12662226 1.0340768
-0.16790894 -0.1028564 1.0335501
-0.15089427 -0.11258014 1.0274643
-0.13501275 -0.11835762 1.0229002
-0.044748086 -0.11336239 1.0248377
-0.031353451 -0.10951963 1.0306967
-0.019967955 -0.10165504 1.0370001
-0.1823573 -0.086019702 1.0294001
-0.17313564 -0.091852568 1.0273999
-0.027753478 -0.090687074 1.0276116
-0.018407209 -0.088426098 1.0350802
-0.18643057 -0.074647516 1.0234001
-0.024260391 -0.071214005 1.025
-0.018336426 -0.071677543 1.0329288
-0.19679123 -0.059037369 1.0220001
-0.023229256 -0.049276162 1.0261999
-0.019346526 -0.052388202 1.0341876
-0.024844211 -0.030369388 1.0290908
-0.019532468 -0.035035677 1.0353333
-0.026176149 -0.011986825 1.0315527
-0.026219429 0.0033583343 1.02425
-0.088242888 -0.18222597 1.0559999
-0.071767442 -0.18242221 1.0557499
-0.053812709 -0.18177192 1.0559999
-0.12342481 -0.16238607 1.0559999
-0.1081875 -0.1662917 1.0522909
-0.089955978 -0.16983134 1.0487176
-0.069662884 -0.16959359 1.0472457
-0.049659289 -0.17017283 1.0508729
-0.034431227 -0.16709834 1.0542272
-0.14470012 -0.14367376 1.0545001
-0.12919143 -0.14894532 1.0484027
-0.11210836 -0.15544739 1.0447029
-0.090024732 -0.15756603 1.0400003
-0.069293559 -0.15662161 1.0400004
-0.047232859 -0.15124908 1.0419439
-0.029725192 -0.14970237 1.0494238
-0.016626906 -0.14399384 1.0554374
-0.16455838 -0.12222385 1.0552499
-0.14985746 -0.1317748 1.0478727
-0.13607688 -0.13698773 1.04225
-0.040961705 -0.13835953 1.0400001
-0.026808022 -0.1312153 1.0431447
-0.014140379 -0.12896875 1.0532727
-0.16716492 -0.11248676 1.0474391
-0.15909597 -0.11704195 1.0446668
-0.021431478 -0.11359387 1.0407059
-0.011682192 -0.10950677 1.0492473
-0.010217644 -0.090796195 1.047195
-0.011678743 -0.069604501 1.0482374
-0.012799864 -0.049242001 1.0502899
-0.020834841 -0.023262201 1.0400001
-0.014215506 -0.03102535 1.0494707
-0.020958489 -0.012753142 1.0411429
-0.017491998 -0.015925549 1.0440001
-0.10388342 -0.2016283 1.079
-0.088013038 -0.20488617 1.0773335
-0.069242857 -0.20720689 1.075263
-0.049720921 -0.20607477 1.0733074
-0.032183185 -0.20594279 1.0772455
-0.017943501 -0.20021169 1.079
-0.12364008 -0.18496466 1.0771431
-0.10930895 -0.18906479 1.0731562
-0.090367034 -0.19230759 1.0665073
-0.069751307 -0.19186364 1.0643528
-0.049885433 -0.19065288 1.0639005
-0.030123523 -0.18991636 1.0701623
-0.013518864 -0.18818478 1.0763391
-0.14490578 -0.16337226 1.075
-0.12989135 -0.16995728 1.0673791
-0.11304336 -0.17526539 1.0630771
-0.026094357 -0.17197475 1.0637389
-0.010570159 -0.16962272 1.0715001
-0.16093047 -0.14034635 1.069
-0.14946118 -0.15059493 1.0647551
-0.13665903 -0.1577117 1.0613333
-0.021338597 -0.15864784 1.0600001
-0.0090717478 -0.1508549 1.0662653
0.0019736886 -0.14665785 1.0772275
-0.16411941 -0.13121428 1.06348
-0.15824023 -0.13541144 1.0617144
-0.0053922557 -0.13126008 1.0640411
0.0021631548 -0.12966383 1.0753236
-0.0026208074 -0.11171825 1.0605296
0.0034139496 -0.11032128 1.0727296
-0.0025835442 -0.087863535 1.063
0.0024241924 -0.091793679 1.0746287
-0.0040589334 -0.069424346 1.064091
0.0020174207 -0.071674168 1.0765175
-0.0051730331 -0.051452383 1.0628695
-0.0055665905 -0.038966134 1.0600001
-0.10177583 -0.22083433 1.097
-0.088198721 -0.22303903 1.0952501
-0.068401501 -0.22759002 1.0920622
-0.049841072 -0.22957793 1.0924573
-0.12285465 -0.20399736 1.0932001
-0.10902369 -0.20882978 1.0899999
-0.091211267 -0.21398064 1.0864445
-0.071517222 -0.21710205 1.0837827
-0.051267587 -0.2167266 1.0833216
-0.027605431 -0.21395852 1.0852093
-0.010243809 -0.21001008 1.0910223
0.00048007464 -0.20307158 1.097
-0.14347373 -0.18160538 1.0970001
-0.12867379 -0.19045098 1.0870296
-0.11535445 -0.1979982 1.0832502
-0.0055975444 -0.19203748 1.0840731
0.0030477231 -0.18763167 1.0947058
-0.14718361 -0.17147307 1.0898184
-0.13776542 -0.17772268 1.0870001
-0.0018957916 -0.17820442 1.0830001
0.0059095882 -0.16951187 1.0913569
0.0091397576 -0.15056199 1.0885755
0.011314961 -0.13008398 1.0896615
0.012846458 -0.10956243 1.088298
0.021123284 -0.11137731 1.097
0.0093197422 -0.090334535 1.0843637
0.0074030398 -0.076866738 1.0842001
-0.1211206 -0.2217306 1.1160001
-0.10773466 -0.22664909 1.1081393
-0.090864681 -0.23303294 1.1074665
-0.074086674 -0.2358489 1.1021003
-0.12947111 -0.20786627 1.1075119
-0.11525325 -0.21612254 1.1041876
-0.0019255501 -0.2156616 1.1
-0.14179941 -0.19115302 1.1038463
-0.13685529 -0.19430584 1.1039547
0.012892359 -0.19092582 1.1063941
0.022918249 -0.18567662 1.1157334
0.016384233 -0.17071974 1.1024871
0.023477007 -0.16976781 1.1143334
0.017868085 -0.15096298 1.1032919
0.025789307 -0.14977288 1.1148076
0.018720349 -0.1309064 1.1008573
0.023483125 -0.12947653 1.1087097
0.018870389 -0.11707344 1.1
0.021610973 -0.11692466 1.1021999
-0.12559313 -0.22464389 1.1298335
-0.11265021 -0.2352535 1.1277777
0.031581242 -0.16958517 1.1286671
0.032587379 -0.15190737 1.1240798
0.028880103 -0.13723834 1.1297002
