# .PCD v0.7 - Point Cloud Data file format
VERSION 0.7
FIELDS x y z
SIZE 4 4 4
TYPE F F F
COUNT 1 1 1
WIDTH 1465
HEIGHT 1
VIEWPOINT 0 0 0 1 0 0 0
POINTS 1465
DATA ascii
-0.076432087 -0.46591049 1.858
-0.065048583 -0.46834981 1.858
-0.054640807 -0.46704885 1.858
-0.045127451 -0.46550399 1.8579999
-0.037077691 -0.46379644 1.858
-0.084969714 -0.45574662 1.8579999
-0.078058302 -0.45534009 1.8580002
-0.045534007 -0.4585925 1.858
-0.035312086 -0.45626938 1.858
-0.029271863 -0.45208767 1.858
-0.091068015 -0.44395658 1.858
-0.086514622 -0.44623327 1.858
-0.078058302 -0.44883522 1.858
-0.032524291 -0.447209 1.858
-0.026948702 -0.44511819 1.858
-0.092694238 -0.43582556 1.858
-0.08781559 -0.43257308 1.858
-0.025612881 -0.43623206 1.8579999
-0.019514576 -0.43257308 1.858
-0.092694223 -0.42606819 1.858
-0.087002479 -0.42606822 1.858
-0.022767004 -0.42769444 1.858
-0.019514576 -0.42606825 1.8580002
-0.091068015 -0.41631097 1.8580002
-0.085492425 -0.41584632 1.858
-0.018430432 -0.41631097 1.8580002
-0.083912671 -0.4055779 1.858
-0.01409386 -0.40655363 1.8580002
-0.084563158 -0.39354399 1.858
-0.091068015 -0.38378665 1.858
-0.091068015 -0.37565559 1.858
-0.20927578 -0.76189464 1.868
-0.20600584 -0.75535476 1.868
-0.17167154 -0.69649595 1.868
-0.17221653 -0.68450618 1.868
-0.17385149 -0.6736064 1.868
-0.1242575 -0.6736064 1.868
-0.11662766 -0.6736064 1.868
-0.17003658 -0.66379666 1.868
-0.1643142 -0.6662491 1.868
-0.15368691 -0.66379666 1.8680001
-0.14551207 -0.66216165 1.868
-0.12098756 -0.66379666 1.868
-0.11771764 -0.66379666 1.868
-0.15237893 -0.65529484 1.868
-0.1438771 -0.65398687 1.8680001
-0.13733724 -0.6507169 1.868
-0.12262253 -0.65562177 1.868
-0.11553767 -0.65289688 1.868
-0.15041697 -0.64744693 1.868
-0.14142466 -0.6449945 1.868
-0.12229555 -0.644831 1.868
-0.11553767 -0.64363205 1.868
-0.10790782 -0.64090711 1.868
-0.15041697 -0.63273227 1.868
-0.14322312 -0.63305926 1.868
-0.13570227 -0.63109726 1.868
-0.12316751 -0.6332773 1.868
-0.1144477 -0.63436723 1.868
-0.10790782 -0.63436723 1.868
-0.15123445 -0.62455744 1.868
-0.14278713 -0.6251024 1.868
-0.13313304 -0.62409031 1.8680001
-0.12589246 -0.62455744 1.868
-0.11444769 -0.62128747 1.868
-0.10790782 -0.62782735 1.868
-0.15041697 -0.61801755 1.868
-0.14387709 -0.61801755 1.868
-0.1340673 -0.61670965 1.868
-0.12556547 -0.61605555 1.868
-0.1340673 -0.60624576 1.868
-0.12425748 -0.60493779 1.868
-0.11526518 -0.60248536 1.868
-0.1340673 -0.595128 1.868
-0.1242575 -0.5960623 1.8680001
-0.13079736 -0.58531821 1.868
-0.12262253 -0.58531827 1.868
-0.11491483 -0.58438396 1.8680001
-0.10545538 -0.58286577 1.868
0.89923185 -0.58531821 1.868
0.90740669 -0.58858812 1.868
-0.13079736 -0.57877833 1.868
-0.12262254 -0.57550836 1.868
-0.1144477 -0.57714337 1.868
-0.10463788 -0.57644266 1.8680001
-0.09679006 -0.57485437 1.868
-0.12207755 -0.56569862 1.868
-0.11771763 -0.56406367 1.868
-0.10572787 -0.5678786 1.868
-0.094360963 -0.56663293 1.8680001
-0.085018285 -0.56406367 1.868
-0.12180505 -0.55507129 1.868
-0.11771763 -0.55915874 1.868
-0.10463789 -0.55425382 1.868
-0.094360963 -0.55495453 1.8680001
-0.085485429 -0.55542171 1.8680001
-0.076843455 -0.55261886 1.868
-0.12229555 -0.545425 1.868
-0.11608267 -0.54607898 1.868
-0.10463789 -0.54771399 1.868
-0.094828092 -0.54648769 1.868
-0.085018285 -0.54607898 1.868
-0.075208485 -0.54607898 1.868
-0.12207755 -0.53844917 1.868
-0.11390271 -0.53626919 1.868
-0.10572787 -0.53408927 1.868
-0.095482074 -0.53496122 1.868
-0.085018285 -0.53790414 1.868
-0.073573515 -0.53626919 1.868
-0.068668619 -0.53626919 1.868
-0.12098756 -0.52972931 1.868
-0.11398056 -0.5273937 1.8680001
-0.10594588 -0.52580541 1.868
-0.082838334 -0.52427948 1.868
-0.073573515 -0.52645946 1.868
-0.068668619 -0.5264594 1.868
-0.1046379 -0.51501465 1.868
-0.096463062 -0.51501465 1.868
-0.084691301 -0.51436061 1.868
-0.077388451 -0.51610464 1.868
-0.068668619 -0.51501465 1.868
-0.10417077 -0.50450414 1.8680001
-0.095762357 -0.50310272 1.8680001
-0.085952558 -0.50356984 1.8680001
-0.078478418 -0.50356984 1.868
-0.068668619 -0.50356984 1.868
-0.058858816 -0.50029993 1.868
-0.10136796 -0.495395 1.868
-0.09436097 -0.49469435 1.8680001
-0.085563272 -0.49321505 1.868
-0.075208493 -0.49376005 1.868
-0.065398678 -0.49376005 1.868
-0.055588882 -0.49376005 1.868
-0.049049012 -0.49376005 1.868
-0.092648141 -0.48286027 1.868
-0.086108267 -0.48504019 1.868
-0.07602597 -0.48640269 1.868
-0.066216171 -0.48640269 1.868
-0.054498903 -0.48613021 1.868
-0.045779075 -0.48395029 1.8680001
-0.039239209 -0.48068032 1.868
-0.091558158 -0.47414047 1.868
-0.088288218 -0.47414047 1.868
-0.037604243 -0.47414044 1.868
-0.092375644 -0.46351317 1.868
-0.088288218 -0.46596563 1.868
-0.034334309 -0.46760058 1.868
-0.029429406 -0.46269566 1.868
-0.093193136 -0.45452088 1.868
-0.026159473 -0.45533833 1.868
-0.022889538 -0.44798097 1.868
-0.019619605 -0.44307607 1.868
-0.098098025 -0.43817118 1.868
-0.21039613 -0.75282365 1.8780001
-0.17505614 -0.69364971 1.8780001
-0.18080918 -0.68378747 1.8780001
-0.17752174 -0.68543112 1.8780001
-0.18212414 -0.6732676 1.8780001
-0.17642593 -0.6717335 1.8780001
-0.18245289 -0.66735023 1.8780001
-0.1747822 -0.6640628 1.8780001
-0.16396104 -0.66365182 1.8780001
-0.1577971 -0.6640628 1.8780001
-0.16484161 -0.65513974 1.8780003
-0.15615338 -0.65584415 1.8780001
-0.14793478 -0.65255672 1.8780001
-0.11177294 -0.65420043 1.8780001
-0.10684179 -0.65420043 1.8780001
-0.16765942 -0.64762557 1.8780001
-0.15450965 -0.64269441 1.8780001
-0.14793478 -0.64762557 1.8780001
-0.11341666 -0.64762557 1.8780001
-0.10425881 -0.64480782 1.8780003
-0.098623186 -0.6410507 1.8780001
-0.15582465 -0.63513327 1.8780001
-0.1413599 -0.63776326 1.8780001
-0.12163526 -0.63118839 1.8780001
-0.11506039 -0.63118839 1.8780001
-0.10355434 -0.63447583 1.8780001
-0.094866112 -0.63353658 1.8780003
-0.15648213 -0.62395602 1.8780001
-0.12163526 -0.62625724 1.8780001
-0.11506039 -0.62461358 1.8780001
-0.10519806 -0.62461358 1.878
-0.096979469 -0.62461352 1.8780001
-0.15341385 -0.61584699 1.8780001
-0.14464734 -0.61475116 1.878
-0.13478501 -0.61557299 1.8780001
-0.12327898 -0.61639488 1.8780001
-0.11506038 -0.61475116 1.878
-0.10519807 -0.61475116 1.878
-0.095746666 -0.61434019 1.8780001
-0.088760868 -0.61146373 1.8780001
-0.15122221 -0.60817629 1.8780001
-0.14417772 -0.60582817 1.8780003
-0.13478503 -0.60441923 1.8780003
-0.11440289 -0.60423136 1.8780001
-0.10519807 -0.60488886 1.878
-0.095746666 -0.60529983 1.8780001
-0.14245571 -0.59721822 1.8780001
-0.13431537 -0.59502661 1.8780003
-0.12601852 -0.59393072 1.8780001
-0.11464946 -0.59543747 1.8780001
-0.10519806 -0.59502655 1.878
-0.095335744 -0.59502661 1.8780001
0.89747095 -0.59173912 1.8780001
0.90568966 -0.59502661 1.8780001
0.91390818 -0.59502655 1.8780001
-0.13533293 -0.58571219 1.8780001
-0.12821016 -0.58516425 1.8780001
-0.10355434 -0.58845168 1.8780001
-0.094924808 -0.58557516 1.8780001
-0.086569242 -0.58406848 1.8780001
0.89747095 -0.58845168 1.8780001
-0.13281254 -0.57595938 1.8780001
-0.12821016 -0.57530189 1.8780001
-0.092048302 -0.5769456 1.8780001
-0.085473426 -0.57530195 1.878
-0.078898549 -0.57201445 1.8780001
-0.13149759 -0.56543958 1.8780001
-0.12656642 -0.56543958 1.8780001
-0.085473418 -0.56609708 1.8780001
-0.076550379 -0.56496996 1.8780003
-0.13149759 -0.55557728 1.8780001
-0.12689517 -0.55557728 1.8780001
-0.082185984 -0.55886471 1.8780001
-0.074789241 -0.55804288 1.8780001
-0.06903623 -0.55393356 1.8780001
-0.13259339 -0.54681081 1.8780001
-0.12821014 -0.54735869 1.8780001
-0.067063771 -0.54637247 1.8780001
-0.12382688 -0.53694844 1.8780001
-0.11834782 -0.53749633 1.8780001
-0.064105071 -0.53585261 1.8780001
-0.11396457 -0.5237987 1.8780001
-0.072323665 -0.52270287 1.8780001
-0.064105071 -0.52599037 1.8780001
-0.059173912 -0.52927774 1.8780001
-0.11412112 -0.51565838 1.8780003
-0.10519806 -0.51777172 1.8780001
-0.07363864 -0.5154705 1.8780001
-0.064105071 -0.516128 1.8780001
-0.058352053 -0.51530612 1.8780001
-0.1125948 -0.50708753 1.8780001
-0.10684179 -0.50297827 1.8780001
-0.082185984 -0.5062657 1.8780001
-0.075200178 -0.5062657 1.8780001
-0.064105071 -0.50626576 1.8780001
-0.05547554 -0.50667667 1.8780001
-0.047996614 -0.50560826 1.8780001
-0.10519806 -0.49640337 1.8780001
-0.096979469 -0.49311593 1.8780001
-0.10355434 -0.48982847 1.8780001
-0.096431553 -0.48708892 1.8780001
-0.19300877 -0.70461416 1.8880001
-0.19168678 -0.69734329 1.8880001
-0.18507689 -0.69498265 1.8880002
-0.19251302 -0.68412352 1.8880001
-0.18672937 -0.68412352 1.8880002
-0.18838184 -0.67586112 1.8880001
-0.18287359 -0.66649717 1.8880002
-0.17598829 -0.66181511 1.8880001
-0.17317908 -0.65503997 1.8880001
-0.16359475 -0.65272653 1.8880001
-0.15698487 -0.65272653 1.8880001
-0.1652472 -0.64446408 1.8880002
-0.15863733 -0.64611661 1.8880001
-0.16524722 -0.63454932 1.8880002
-0.15863733 -0.63454932 1.8880001
-0.092538446 -0.63124436 1.8880001
-0.16326426 -0.6246345 1.8880001
-0.092538446 -0.6246345 1.8880002
-0.087581031 -0.6246345 1.8880002
-0.16194227 -0.61471963 1.8880002
-0.15731536 -0.61405867 1.8880001
-0.085928552 -0.61424756 1.8880002
-0.16194227 -0.60480481 1.8880001
-0.1553324 -0.60480481 1.8880002
-0.14762086 -0.6037032 1.8880002
-0.092538446 -0.60480481 1.8880001
-0.085928552 -0.60480481 1.8880002
-0.079318665 -0.60480481 1.8880001
-0.16194227 -0.59489 1.8880001
-0.1553324 -0.59489006 1.8880002
-0.14583068 -0.59447694 1.8880002
-0.13880767 -0.59489 1.8880001
-0.095843397 -0.59819496 1.8880002
-0.085928552 -0.59530318 1.8880002
-0.079318665 -0.59158504 1.8880001
-0.15334941 -0.58497518 1.8880001
-0.14541756 -0.58497518 1.8880002
-0.13880767 -0.5833227 1.8880001
-0.085102312 -0.58745384 1.8880001
-0.077996694 -0.58497518 1.8880001
-0.15202744 -0.57836527 1.8880001
-0.14500444 -0.57547343 1.8880002
-0.13748568 -0.57439935 1.8880001
-0.075352736 -0.57572132 1.8880001
-0.1434346 -0.56580651 1.8880001
-0.13715521 -0.56514549 1.8880002
-0.072708778 -0.56845045 1.8880001
-0.068577595 -0.56431925 1.8880001
-0.14211261 -0.55523062 1.8880002
-0.13715521 -0.55523062 1.8880002
-0.064446412 -0.55523068 1.8880001
-0.14211261 -0.54862076 1.8880001
-0.13550273 -0.5453158 1.8880001
-0.12889282 -0.54366338 1.8880001
-0.06279394 -0.54696828 1.8880001
-0.059489001 -0.54366338 1.8880001
-0.13219777 -0.53870595 1.8880001
-0.12668954 -0.53429931 1.8880002
-0.057836525 -0.53540099 1.8880001
-0.056734882 -0.52548617 1.8880002
-0.049574167 -0.52218121 1.8880001
-0.05398076 -0.51777458 1.8880002
-0.10906317 -0.4957417 1.8880002
-0.10377526 -0.48648784 1.8880001
-0.20443827 -0.71470296 1.899
-0.20443827 -0.70140612 1.899
-0.19812231 -0.7040655 1.899
-0.20388424 -0.6925416 1.899
-0.1961278 -0.69523269 1.8990002
-0.18947938 -0.69475776 1.899
-0.20443827 -0.68810934 1.899
-0.19612777 -0.68395406 1.899
-0.19391166 -0.67702866 1.899
-0.18947938 -0.67315042 1.899
-0.18549035 -0.66550487 1.899
-0.17950678 -0.66151571 1.899
-0.18283099 -0.65819156 1.899
-0.17684741 -0.65420252 1.899
-0.17576706 -0.64489478 1.899
-0.17523283 -0.63444728 1.8990002
-0.16953419 -0.63159794 1.899
-0.17507452 -0.62716568 1.899
-0.16820452 -0.62494957 1.899
-0.16704103 -0.61580801 1.899
-0.078451112 -0.61431211 1.899
-0.16565597 -0.60500443 1.899
-0.077786274 -0.60433954 1.899
-0.16565597 -0.59503174 1.899
-0.15956159 -0.59170753 1.899
-0.075791754 -0.59569663 1.899
-0.16288579 -0.5867213 1.899
-0.1582319 -0.58505917 1.899
-0.073963448 -0.58589023 1.899
-0.069808193 -0.58339703 1.899
-0.15457529 -0.57508659 1.899
-0.14958899 -0.57342446 1.899
-0.068146095 -0.57508653 1.899
-0.15457529 -0.56843817 1.899
-0.14737287 -0.56511396 1.899
-0.063990846 -0.56594503 1.899
0.35555738 -0.79398906 1.909
0.88221002 -0.79866743 1.909
0.89891851 -0.79198402 1.909
0.90894365 -0.79866743 1.909
0.75188351 -0.78864229 1.909
0.90560198 -0.78362983 1.9090002
-0.12197222 -0.76357949 1.909
-0.11445338 -0.76775664 1.909
-0.12280764 -0.75606066 1.909
0.35756239 -0.75689614 1.909
0.73517501 -0.74185842 1.909
0.74520016 -0.74352932 1.909
-0.21052739 -0.71512479 1.9090002
-0.20551483 -0.71178305 1.909
-0.21052739 -0.70509976 1.9090002
-0.20551482 -0.7050997 1.909
-0.21052739 -0.6967454 1.909
-0.20384398 -0.69841623 1.909
-0.20342626 -0.68546718 1.9090002
-0.20050228 -0.67836607 1.909
-0.19604668 -0.67613828 1.9090002
-0.19047716 -0.66667008 1.909
-0.18713546 -0.66332841 1.909
-0.18379377 -0.65564245 1.909
-0.18323681 -0.64550591 1.9090002
-0.1821229 -0.63826561 1.909
-0.17711034 -0.6315822 1.909
-0.18045205 -0.62824047 1.909
-0.17577367 -0.62423038 1.909
-0.17126235 -0.61570907 1.909
0.66633594 -0.50326079 1.909
0.66499925 -0.49791402 1.9090002
0.80326951 -0.7931866 1.9200001
0.79990852 -0.78982562 1.9200001
0.80326951 -0.78814518 1.9200001
-0.11494484 -0.76697105 1.9200001
0.35962275 -0.76965988 1.9200001
-0.12099457 -0.75621605 1.9200001
-0.1176336 -0.75621605 1.9200001
-0.11427265 -0.7452929 1.9200001
-0.10587025 -0.73605025 1.9200001
-0.21510145 -0.72596741 1.9200001
-0.10166904 -0.72680765 1.9200001
-0.21510145 -0.71588457 1.9200001
-0.21510145 -0.70580167 1.9200001
-0.21174049 -0.69403827 1.9200001
0.13107745 -0.62849957 1.9200001
0.65790796 -0.60413259 1.9200001
0.66547012 -0.60161185 1.9200001
0.65874821 -0.59825093 1.9200001
0.66210914 -0.59825093 1.9200001
0.62457848 -0.58592743 1.9200001
0.63186049 -0.58648753 1.9200001
0.62513858 -0.57640469 1.9200001
0.64362383 -0.56128037 1.9200001
0.64530432 -0.55791938 1.9200001
0.036970563 -0.36634466 1.9200001
0.040331524 -0.35962275 1.9200001
-0.11154712 -0.77068919 1.9310001
-0.10478669 -0.77575946 1.9310001
-0.11408228 -0.76477379 1.9310001
-0.4935115 -0.75716829 1.9310001
-0.11380061 -0.75378811 1.9310001
-0.1064768 -0.74364746 1.9310001
-0.10140647 -0.73688704 1.9310001
-0.098026253 -0.73012662 1.9310001
-0.21971402 -0.72505629 1.9310001
-0.10140647 -0.72336614 1.9310001
-0.098026253 -0.72674638 1.9310001
-0.21971402 -0.71660578 1.9310001
-0.094646037 -0.71660578 1.9310001
-0.086758874 -0.70646513 1.9310001
-0.082815289 -0.69632447 1.9310001
-0.077744961 -0.69294423 1.9310001
0 -0.69801456 1.9310001
0.0033802162 -0.68714958 1.9310001
0.011267385 -0.68843734 1.9310001
0.036055636 -0.68393034 1.9310001
0.054083452 -0.68280357 1.9310001
0.003380216 -0.67604309 1.931
0.013520865 -0.67435306 1.9310001
0.022985468 -0.67469102 1.9310001
0.034224685 -0.67562056 1.931
0.043942805 -0.67604315 1.931
0.054083455 -0.67604309 1.931
0.064224109 -0.67604315 1.9310001
0.074364744 -0.67660654 1.9310001
0.003380216 -0.66590255 1.931
0.013520863 -0.6659025 1.931
0.023661511 -0.66590255 1.931
0.034224682 -0.66548002 1.931
0.043942805 -0.6659025 1.931
0.054083452 -0.66590255 1.931
0.064224102 -0.66541958 1.9310001
0.073801376 -0.66646588 1.9310001
0.084505402 -0.66252226 1.9310001
0.09532208 -0.66387433 1.9310001
0.013520864 -0.65576184 1.931
0.023661511 -0.65576184 1.931
0.033802159 -0.65576184 1.931
0.043942805 -0.65576184 1.931
0.054083455 -0.6557619 1.931
0.064224102 -0.65576184 1.931
0.074364744 -0.65576184 1.931
0.084505402 -0.65576184 1.931
0.094646037 -0.65576184 1.931
0.10478669 -0.6557619 1.931
0.11492733 -0.65576184 1.931
0.12464546 -0.65533936 1.931
0.13520865 -0.65576196 1.931
0.14534926 -0.65576184 1.931
0.1543632 -0.6568886 1.9310001
0.074364744 -0.64562124 1.931
0.083378658 -0.64449447 1.9310001
0.094646044 -0.64465547 1.9310001
0.10575248 -0.64513826 1.9310001
0.11492733 -0.64562118 1.931
0.12506799 -0.64562118 1.931
0.13520864 -0.64562118 1.931
0.14534926 -0.64562124 1.931
0.15210971 -0.64562118 1.9310001
0.11492733 -0.63548058 1.931
0.12506798 -0.63548052 1.931
0.13563116 -0.63590312 1.931
0.14196905 -0.63717067 1.9310001
0.12506799 -0.62872016 1.9310001
0.13182841 -0.6287201 1.9310001
0.6659025 -0.61181903 1.9310001
0.6659025 -0.6067487 1.9310001
0.63548058 -0.59660804 1.9310001
0.040562589 -0.3667534 1.9310001
-0.10617878 -0.77468038 1.9410001
-0.11212479 -0.76448721 1.9410002
-0.10872707 -0.76618606 1.9410001
-0.11212479 -0.75769174 1.9410001
-0.10872707 -0.75429404 1.9410001
-0.1030642 -0.74636602 1.9410002
-0.097401336 -0.74183577 1.9410002
-0.063424125 -0.74296832 1.9410002
-0.057761256 -0.74070317 1.9410001
-0.095985614 -0.73475713 1.9410001
-0.05209839 -0.7316426 1.9410002
-0.044170372 -0.73051 1.9410001
-0.095136188 -0.72456402 1.9410001
-0.053230964 -0.72371459 1.9410002
-0.045869231 -0.72711229 1.9410001
-0.033977211 -0.72711229 1.9410001
-0.084943026 -0.71267194 1.9410001
-0.053230964 -0.71352136 1.9410002
-0.045869231 -0.71352136 1.9410001
-0.01245831 -0.71578658 1.9410002
-0.081545301 -0.7050271 1.9410001
-0.078147583 -0.70332819 1.9410001
-0.054363534 -0.7050271 1.9410001
-0.0033977209 -0.7050271 1.9410001
0.0033977209 -0.70502704 1.9410001
0.013590883 -0.7050271 1.9410002
0.023784047 -0.70502704 1.9410002
-0.5062604 -0.69313508 1.9410001
-0.081545301 -0.69993049 1.9410001
-0.074070312 -0.69585323 1.9410002
-0.065122984 -0.69596648 1.9410002
-0.054363538 -0.69653279 1.9410002
-0.0050965813 -0.69313508 1.9410001
0.0040772655 -0.69789189 1.9410002
0.014076273 -0.69750363 1.9410002
0.023784047 -0.69653285 1.9410002
0.033977207 -0.69653285 1.9410002
0.045302942 -0.69709909 1.9410002
-0.064556703 -0.68633968 1.9410002
-0.05572262 -0.68566006 1.9410002
-0.044170372 -0.68464077 1.9410002
-0.037374929 -0.68294191 1.9410001
0.0033977209 -0.68633962 1.9410001
0.014015598 -0.68591487 1.9410001
0.023784049 -0.68633956 1.9410002
0.031428918 -0.68718904 1.9410001
0.044170372 -0.68803853 1.9410002
0.054363538 -0.68837827 1.9410002
0.063707262 -0.68718904 1.9410001
-0.044170372 -0.67614639 1.9410002
-0.036015842 -0.67546695 1.9410002
-0.023784045 -0.67274874 1.9410001
-0.013590883 -0.67274874 1.9410001
-0.0056628687 -0.67614645 1.9410002
0.027181767 -0.67614645 1.9410001
0.030579487 -0.67274874 1.9410001
0.064556703 -0.67614645 1.9410002
0.074749857 -0.67614645 1.9410001
0.084943019 -0.67614639 1.9410002
-0.0050965818 -0.66595334 1.9410002
0.064556696 -0.66935098 1.9410001
0.075882435 -0.66821849 1.9410002
0.084943019 -0.66935098 1.9410002
0.091738462 -0.66935098 1.9410001
0.12571567 -0.66651958 1.9410002
0.1350594 -0.66680264 1.9410001
0.086641878 -0.65236241 1.9410001
0.095136181 -0.65236241 1.9410001
0.10193162 -0.65236241 1.9410001
0.066255555 -0.64216924 1.9410001
0.088340744 -0.6489647 1.9410001
0.10193162 -0.6489647 1.9410001
0.1030642 -0.63310868 1.9410002
-0.10421778 -0.77736211 1.9520001
-0.10934325 -0.76369423 1.9520001
-0.10592627 -0.75686026 1.9520001
-0.09909232 -0.75173479 1.9520001
-0.09311261 -0.74575514 1.9520001
-0.065492049 -0.7437619 1.952
-0.0542445 -0.74490076 1.9519999
-0.092258364 -0.7346499 1.9520001
-0.064922556 -0.7363584 1.952
-0.057234354 -0.73550415 1.9520001
-0.045274939 -0.73721266 1.9520001
-0.034169763 -0.7363584 1.9520001
-0.092258364 -0.72781599 1.9520001
-0.087132901 -0.72269052 1.9520001
-0.07346499 -0.72098202 1.9520001
-0.064239159 -0.72234887 1.952
-0.055810615 -0.72439903 1.9520001
-0.044847816 -0.7239719 1.9519999
-0.034169767 -0.72269052 1.952
-0.022552047 -0.72439903 1.952
-0.08200743 -0.71756506 1.9520001
-0.075173475 -0.71414804 1.9519999
-0.064922549 -0.71414804 1.9519999
-0.056380112 -0.71329379 1.9520001
-0.044420693 -0.71329379 1.9520001
-0.033681627 -0.71512437 1.952
-0.021356104 -0.71329379 1.9520001
-0.013667905 -0.71372092 1.9519999
-0.0054671625 -0.71483147 1.952
-0.073464997 -0.70560563 1.9520001
-0.064922556 -0.70594734 1.952
-0.054671623 -0.70560563 1.9520001
-0.046983428 -0.70304286 1.9520001
-0.033742644 -0.70389712 1.9519999
-0.023918834 -0.70389712 1.9519999
-0.013667907 -0.70389706 1.9519999
-0.005467162 -0.70321381 1.952
0.035878252 -0.70731413 1.9520001
0.0437373 -0.70458055 1.952
-0.061505575 -0.6953547 1.9520001
-0.053988229 -0.69432962 1.952
-0.047837671 -0.6953547 1.9520001
-0.033030774 -0.69250721 1.952
-0.023430698 -0.69266999 1.952
-0.015376393 -0.69364619 1.952
-0.0056949607 -0.69250721 1.9520001
0.041003719 -0.69706321 1.9520001
-0.068339527 -0.68681228 1.9520001
-0.051254645 -0.68510377 1.9520001
-0.032461274 -0.68510377 1.9520001
-0.023918835 -0.68510383 1.952
-0.013667907 -0.68681228 1.9520001
-0.0068339529 -0.68681228 1.9520001
-0.030752789 -0.67656136 1.9520001
-0.02448833 -0.6777004 1.952
-0.013667906 -0.67912412 1.9520001
-0.0051254649 -0.67826986 1.9520001
0.67656136 -0.66631043 1.9520001
-0.10313947 -0.78042203 1.9640001
-0.10485847 -0.7735461 1.9640001
-0.10428547 -0.76552409 1.9640001
-0.083657578 -0.76552409 1.9640001
-0.075635612 -0.76495117 1.9640001
-0.10313947 -0.75979412 1.9640001
-0.096263513 -0.75750208 1.9640001
-0.088241547 -0.75406408 1.9640001
-0.076065361 -0.75592643 1.964
-0.087668546 -0.74604219 1.9640001
-0.075635612 -0.74604219 1.9640001
-0.041255787 -0.74776119 1.9640001
-0.034379825 -0.74647194 1.964
0.56554812 -0.74948019 1.9640001
-0.087324753 -0.73572826 1.9640001
-0.075635612 -0.73572826 1.9640001
-0.065321669 -0.73400927 1.9640001
-0.041255787 -0.73572826 1.9640001
-0.034379825 -0.73523718 1.9640001
-0.082511574 -0.72713327 1.9640001
-0.076495111 -0.72799277 1.9640001
-0.06875965 -0.72885227 1.9640001
-0.025784867 -0.72369528 1.9640001
-0.017189912 -0.72541428 1.9640001
-0.043318577 -0.71510035 1.9640001
-0.036098816 -0.71510035 1.9640001
-0.026357865 -0.71739239 1.9640001
-0.042630982 -0.70478642 1.9640001
-0.036671814 -0.70364046 1.9640001
-0.025784869 -0.70134842 1.9640001
-0.010313948 -0.70134842 1.9640001
0.22003087 -0.70822436 1.9640001
-0.042974778 -0.69791043 1.9640001
-0.037817806 -0.69791043 1.9640001
-0.010313948 -0.69619143 1.9640001
-0.0034379824 -0.69275343 1.9640001
-0.013751931 -0.6875965 1.9640001
-0.0034379824 -0.6875965 1.9640001
-0.1002599 -0.78133577 1.9750001
-0.1002599 -0.77442133 1.9750001
-0.09507405 -0.77442133 1.9750003
-0.1002599 -0.76750684 1.9750001
-0.09507405 -0.76577818 1.9750001
-0.086430952 -0.76404971 1.9750004
-0.084702328 -0.75367785 1.9750001
-0.08412613 -0.74561107 1.9750001
-0.08556664 -0.73725599 1.9750001
-0.086326264 -0.73704314 1.868
-0.085018292 -0.74554503 1.868
-0.086326264 -0.7540468 1.868
-0.08613091 -0.76531595 1.8780001
-0.095482081 -0.76451057 1.868
-0.10463789 -0.76843452 1.868
-0.094513878 -0.7750138 1.8780001
-0.098098025 -0.77497435 1.868
-0.098098025 -0.78151423 1.868
-0.0052318946 -0.6873402 1.868
-0.015259693 -0.68559623 1.868
-0.0065398682 -0.69649589 1.868
-0.0065398682 -0.69649589 1.868
-0.037402935 -0.69601983 1.858
-0.045534004 -0.69601989 1.858
0.21633382 -0.70646513 1.931
-0.0098098023 -0.70303583 1.868
-0.026159473 -0.69894844 1.868
-0.037402935 -0.70252472 1.858
-0.046618156 -0.70469302 1.858
-0.024890613 -0.71666181 1.8780003
-0.035969276 -0.71284568 1.868
-0.045779083 -0.71611565 1.8680001
-0.015698485 -0.7262615 1.8880001
-0.027943235 -0.72323668 1.8780001
-0.066674799 -0.73179656 1.858
-0.074805878 -0.72529173 1.858
-0.082936943 -0.72529173 1.858
-0.035693403 -0.73237568 1.8880001
-0.044065922 -0.735901 1.8880002
-0.066674799 -0.73179656 1.858
-0.075456358 -0.73309755 1.858
-0.086326264 -0.73704314 1.868
0.56511396 -0.74794495 1.899
-0.036566202 -0.74462074 1.8989999
-0.044876695 -0.74794495 1.899
-0.076298468 -0.74445504 1.868
-0.085018292 -0.74554503 1.868
-0.076268598 -0.75545359 1.8780001
-0.086326264 -0.7540468 1.868
-0.093738124 -0.75644481 1.868
-0.10407774 -0.76106846 1.8580002
-0.076013729 -0.76344222 1.8880002
-0.08613091 -0.76531595 1.8780001
-0.10463789 -0.76843452 1.868
-0.10463789 -0.77497429 1.868
-0.10463789 -0.78151429 1.868
0.67565799 -0.66761446 1.8380001
-0.0075890021 -0.67758942 1.858
-0.017075254 -0.67650527 1.858
-0.022767004 -0.67650527 1.858
-0.033516824 -0.67442393 1.868
-0.0052318946 -0.6873402 1.868
-0.015259693 -0.68559623 1.868
-0.025554802 -0.68719184 1.858
-0.03556053 -0.68300748 1.868
-0.054934889 -0.68537819 1.868
-0.06492693 -0.68625295 1.8780001
0.045779079 -0.69540596 1.868
-0.0065398682 -0.69649589 1.868
-0.016262146 -0.69276744 1.858
-0.026019434 -0.69276744 1.858
-0.037402935 -0.69601983 1.858
-0.045534004 -0.69601989 1.858
-0.055291299 -0.69601983 1.858
-0.064642027 -0.69642645 1.8579999
0.042964276 -0.70725811 1.8880001
0.034701914 -0.71056306 1.8880001
-0.0049311593 -0.70679951 1.8780001
-0.015804682 -0.70576084 1.868
-0.02709374 -0.70583862 1.8680001
-0.0346613 -0.70761377 1.868
-0.046618156 -0.70469302 1.858
-0.055291295 -0.70577711 1.858
-0.065048583 -0.70577711 1.858
-0.072854415 -0.70642757 1.858
-0.0049574166 -0.71717292 1.8880001
-0.017259058 -0.71542901 1.8780001
-0.017259058 -0.71542901 1.8780001
-0.035969276 -0.71284568 1.868
-0.045779083 -0.71611565 1.8680001
-0.057242751 -0.71488398 1.858
-0.065048583 -0.71553445 1.858
-0.074399307 -0.71594095 1.8579999
-0.084609538 -0.71570683 1.868
-0.02313461 -0.72708774 1.8880001
-0.036983695 -0.72405851 1.8780001
-0.045366663 -0.72718161 1.8780001
-0.055588882 -0.72538036 1.868
-0.065455139 -0.72488517 1.8579999
-0.074805878 -0.72529173 1.858
-0.088760868 -0.72323668 1.8780001
-0.094174109 -0.72657937 1.868
-0.035693403 -0.73237568 1.8880001
-0.044065922 -0.735901 1.8880002
-0.058858816 -0.73410022 1.868
-0.064090714 -0.73704314 1.868
-0.094828099 -0.73573518 1.868
-0.05287911 -0.74691743 1.8880001
-0.068668619 -0.74227506 1.868
-0.094726995 -0.74439973 1.8579999
-0.097572878 -0.75456357 1.858
-0.10407773 -0.75456357 1.858
-0.11383502 -0.7610684 1.858
-0.10463789 -0.77497429 1.868
0.10513504 -0.63404512 1.8479998
0.10351758 -0.6502198 1.848
0.090577878 -0.6502198 1.848
0.064698488 -0.64375001 1.8479998
0.10351758 -0.6502198 1.848
0.094970934 -0.65568972 1.858
0.08781559 -0.65536451 1.858
0.1340673 -0.6637966 1.868
0.12492269 -0.66735023 1.8780001
0.093193121 -0.67033648 1.868
0.082394868 -0.67108458 1.8580002
0.075456358 -0.67195189 1.858
0.065237641 -0.6653161 1.8479999
-0.0065398677 -0.66575861 1.868
0.087198243 -0.67578638 1.868
0.075456358 -0.67195189 1.858
0.063747615 -0.67390335 1.858
0.025879394 -0.67286426 1.848
0.026019435 -0.67650521 1.8579999
-0.0075890021 -0.67758942 1.858
-0.015341384 -0.6717335 1.8780001
-0.026159473 -0.67360646 1.868
-0.03681932 -0.67458266 1.8780001
-0.044380434 -0.67721254 1.8780001
0.06246135 -0.69036227 1.8780001
0.057768833 -0.68668622 1.868
0.045127455 -0.68585604 1.8579999
0.035776719 -0.68951499 1.8580002
0.026019435 -0.68626255 1.8579999
0.016262146 -0.68626261 1.858
0.0065048588 -0.68626261 1.858
-0.03556053 -0.68300748 1.868
-0.045779079 -0.68614119 1.868
-0.054934889 -0.68537819 1.868
-0.06492693 -0.68625295 1.8780001
0.045779079 -0.69540596 1.868
0.035776719 -0.6927675 1.8580002
0.024524506 -0.69813097 1.868
0.016349671 -0.69780397 1.868
0.004496159 -0.6977222 1.868
-0.0065398682 -0.69649589 1.868
-0.055291299 -0.69601983 1.858
-0.064642027 -0.69642645 1.8579999
-0.073573515 -0.69649595 1.868
-0.078898549 -0.7018683 1.8780001
-0.50475675 -0.69539875 1.9750004
0.026299516 -0.70548457 1.8780001
0.016437197 -0.70597768 1.8780001
0.0032699341 -0.70303583 1.868
-0.0049311593 -0.70679951 1.8780001
-0.055291295 -0.70577711 1.858
-0.078898549 -0.7018683 1.8780001
-0.085003786 -0.70445138 1.8780003
-0.017259058 -0.71542901 1.8780001
-0.045779083 -0.71611565 1.8680001
-0.057242751 -0.71488398 1.858
-0.085473418 -0.71173066 1.8780001
-0.036983695 -0.72405851 1.8780001
-0.045366663 -0.72718161 1.8780001
-0.055588882 -0.72538036 1.868
-0.094174109 -0.72657937 1.868
-0.045366663 -0.72718161 1.8780001
-0.049311593 -0.73309898 1.8780001
-0.094828099 -0.73573518 1.868
-0.058078103 -0.74405718 1.8780001
-0.065748796 -0.74734461 1.8780001
-0.097572878 -0.7383014 1.858
-0.10407773 -0.74480629 1.858
-0.10407773 -0.75456357 1.858
-0.11444769 -0.75862473 1.868
-0.10463789 -0.76843452 1.868
-0.11444769 -0.76647258 1.868
-0.10463789 -0.77497429 1.868
0.035222568 -0.36537543 1.8780003
0.63541508 -0.59502661 1.8780003
0.66768837 -0.60622483 1.8479999
0.66639435 -0.61423117 1.8479998
0.13513161 -0.63222289 1.8380002
0.12616205 -0.62434042 1.8479998
0.1466499 -0.63620186 1.848
0.13513161 -0.63222289 1.8380002
0.12616205 -0.63404518 1.8479998
0.11645728 -0.63404518 1.8479998
0.15527637 -0.64282572 1.8479999
0.14516723 -0.64334559 1.8479998
0.13586684 -0.64374995 1.8479998
0.12616204 -0.64375001 1.8479998
0.11645728 -0.64375001 1.8479998
0.10513505 -0.64375007 1.8479998
0.093812808 -0.64375001 1.8479998
0.08410804 -0.64374989 1.8479998
0.074403264 -0.64374989 1.8479998
0.15205193 -0.65725678 1.868
0.14635932 -0.65265411 1.8580002
0.13400009 -0.65568978 1.858
0.1242428 -0.65503925 1.858
0.11448552 -0.65503925 1.858
0.10326463 -0.65536451 1.858
0.094970934 -0.65568972 1.858
0.082259506 -0.65437907 1.8479999
0.074403256 -0.65507221 1.8479998
0.06469848 -0.65507221 1.8479998
0.054993711 -0.65507221 1.8479998
0.045288946 -0.65507221 1.8479998
0.03558417 -0.65507221 1.8479998
0.026957704 -0.65615052 1.8479999
0.013079736 -0.65235186 1.868
0.096463054 -0.66543162 1.868
0.086514615 -0.66414607 1.858
0.073594525 -0.66396821 1.848
0.065237641 -0.6653161 1.8479999
0.054069452 -0.6659323 1.8479999
0.045288943 -0.66639435 1.8479998
0.03558417 -0.66639435 1.8479998
0.025879396 -0.66477698 1.8479999
0.012939697 -0.66315949 1.848
0.0032699341 -0.66297913 1.868
0.071938552 -0.68014628 1.868
0.063747615 -0.67390335 1.858
0.055755932 -0.67604071 1.858
0.044641953 -0.67415822 1.8479999
0.03558417 -0.67609918 1.8479998
0.025879394 -0.67286426 1.848
0.012939697 -0.67286426 1.848
0.0065048588 -0.67487907 1.858
0.053123008 -0.68409431 1.8580002
0.035584167 -0.68256903 1.848
0.0065048588 -0.68626261 1.858
0.0065048588 -0.68626261 1.858
0.004496159 -0.6977222 1.868
-0.076839961 -0.69155961 1.8880001
-0.085928559 -0.69403833 1.8880002
-0.085003786 -0.70445138 1.8780003
-0.093520127 -0.71546161 1.868
-0.22346886 -0.71510035 1.9640001
-0.09588366 -0.72707212 1.8780001
-0.10519806 -0.72652411 1.878
-0.22126323 -0.72947723 1.9750001
-0.09588366 -0.72707212 1.8780001
-0.10478713 -0.7359755 1.8780001
-0.10519806 -0.74296135 1.8780001
-0.11383504 -0.75409895 1.858
-0.49366203 -0.75439912 1.9860001
-0.11444769 -0.76647258 1.868
-0.10463789 -0.77497429 1.868
-0.11363021 -0.77333939 1.868
0.039659332 -0.35362905 1.8880001
0.035222568 -0.36537543 1.8780003
0.64336252 -0.55633229 1.8880002
0.64399207 -0.56420124 1.8880002
0.62463444 -0.57506031 1.8880002
0.63454932 -0.58497518 1.8880002
0.62463444 -0.58497518 1.8880002
0.66278833 -0.59522253 1.8380001
0.65699703 -0.59715295 1.8380002
0.66278833 -0.60165739 1.8380001
0.65588093 -0.6041221 1.848
0.13513161 -0.63222289 1.8380002
-0.21453011 -0.69516003 1.9640001
-0.21487391 -0.70478642 1.9640001
-0.21487391 -0.71510041 1.9640001
-0.10519806 -0.72652411 1.878
-0.21296585 -0.72740287 1.9750003
-0.10478713 -0.7359755 1.8780001
-0.11383503 -0.74480629 1.858
-0.11444769 -0.75862473 1.868
-0.12466624 -0.75576353 1.868
0.3550435 -0.76761717 1.8780001
-0.11444769 -0.76647258 1.868
0.80542266 -0.78405428 1.8780001
0.79556036 -0.7840544 1.8780001
0.80542266 -0.78405428 1.8780001
0.6657474 -0.49688435 1.8479999
0.66720319 -0.502222 1.848
-0.17498265 -0.61498749 1.9410002
-0.17498264 -0.62518072 1.9410002
-0.18347692 -0.6251806 1.9410002
-0.1742658 -0.63726616 1.952
-0.18383335 -0.63692445 1.952
-0.18354048 -0.64629674 1.952
-0.18537097 -0.65349674 1.9520001
-0.18522131 -0.6639604 1.964
-0.19596499 -0.66696858 1.9640001
-0.19639473 -0.67384452 1.964
-0.20421617 -0.67453218 1.9640001
-0.20627894 -0.68415844 1.9640001
-0.20167223 -0.69720972 1.9750001
-0.20726123 -0.69398129 1.9640001
-0.20354487 -0.70570874 1.9750003
-0.20971693 -0.70306742 1.9640001
-0.20397703 -0.71564817 1.9750001
-0.21089152 -0.71564829 1.9750001
0.74881488 -0.74554497 1.868
0.7350812 -0.74423701 1.868
0.35683158 -0.75576353 1.868
-0.12466624 -0.75576353 1.868
-0.11444769 -0.76647258 1.868
-0.1242575 -0.76516455 1.868
0.89089608 -0.78405434 1.8780001
0.74881488 -0.78151423 1.868
0.89089608 -0.78405434 1.8780001
0.89089608 -0.78405434 1.8780001
0.88432121 -0.7840544 1.8780001
0.35422164 -0.78323245 1.8780001
-0.064224102 -0.56449604 1.931
-0.14534928 -0.56449604 1.931
-0.15548992 -0.57210147 1.9310001
-0.064706996 -0.57367098 1.9310001
-0.14492674 -0.57421416 1.931
-0.15629515 -0.57761252 1.9410001
-0.074847631 -0.58381158 1.9310001
-0.074847631 -0.58381158 1.9310001
-0.15629517 -0.58440804 1.9410002
-0.1664883 -0.58440799 1.9410002
-0.076054856 -0.59407294 1.9310001
-0.15629515 -0.59460115 1.9410002
-0.1664883 -0.59460115 1.9410002
-0.077744961 -0.60505861 1.9310001
-0.16648832 -0.60479432 1.9410002
-0.077744961 -0.61350918 1.9310001
-0.1664883 -0.61498743 1.9410002
-0.1664883 -0.6251806 1.9410002
-0.17498264 -0.62518072 1.9410002
-0.16444969 -0.63469428 1.9410002
-0.1742658 -0.63726616 1.952
-0.17426582 -0.64580852 1.9519999
-0.1749492 -0.65400928 1.952
-0.18537097 -0.65349674 1.9520001
-0.17533711 -0.66410363 1.9640001
-0.18522131 -0.6639604 1.964
-0.18565106 -0.67040658 1.9640001
-0.19187671 -0.67761862 1.9750001
-0.19596499 -0.6841585 1.9640001
-0.2005198 -0.68799037 1.9750001
-0.19014809 -0.69144762 1.9750001
-0.19424599 -0.69447243 1.9640001
-0.20726123 -0.69398129 1.9640001
-0.19424599 -0.70134842 1.9640001
-0.20354487 -0.70570874 1.9750003
-0.20397703 -0.71564817 1.9750001
-0.10478669 -0.48506093 1.9310001
-0.10478669 -0.49351153 1.931
-0.055773564 -0.5154829 1.9310001
-0.054083455 -0.52393341 1.931
-0.054083455 -0.52393341 1.931
-0.054083452 -0.53407407 1.931
-0.12491569 -0.53383255 1.9200001
-0.13107745 -0.54279506 1.9200001
-0.064224102 -0.54421473 1.931
-0.064224102 -0.54421473 1.931
-0.13107745 -0.54279506 1.9200001
-0.13617441 -0.54373193 1.9310001
-0.14534928 -0.54421473 1.931
-0.064224102 -0.55435538 1.931
-0.13520864 -0.55435544 1.931
-0.14534928 -0.55435544 1.931
-0.064224102 -0.56449604 1.931
-0.074364752 -0.56449604 1.931
-0.13520864 -0.56449604 1.931
-0.14534928 -0.56449604 1.931
-0.074364752 -0.57463664 1.931
-0.13520862 -0.57463676 1.931
-0.14492674 -0.57421416 1.931
-0.15629515 -0.57761252 1.9410001
-0.074847631 -0.58381158 1.9310001
-0.084505402 -0.5847773 1.931
-0.14196905 -0.58477736 1.9310001
-0.14723457 -0.58554059 1.9410002
-0.15629517 -0.58440804 1.9410002
-0.076054856 -0.59407294 1.9310001
-0.084505402 -0.59443516 1.9310001
-0.098533906 -0.59630001 1.9410001
-0.13726793 -0.59596026 1.9410002
-0.14652672 -0.5950259 1.9410001
-0.15629515 -0.59460115 1.9410002
-0.1664883 -0.59460115 1.9410002
-0.077744961 -0.60505861 1.9310001
-0.084505394 -0.60548115 1.931
-0.094646037 -0.60252345 1.9310001
-0.14610198 -0.60479432 1.9410002
-0.15629517 -0.60479432 1.9410002
-0.16648832 -0.60479432 1.9410002
-0.085622571 -0.61702615 1.9410002
-0.15629517 -0.61498749 1.9410002
-0.1664883 -0.61498743 1.9410002
-0.084943019 -0.6251806 1.9410002
-0.094711468 -0.62475592 1.9410001
-0.1664883 -0.6251806 1.9410002
-0.094003618 -0.63480759 1.9410002
-0.15629517 -0.63537389 1.9410002
-0.16444969 -0.63469428 1.9410002
-0.1545963 -0.64556694 1.9410002
-0.16450302 -0.64678478 1.952
-0.15444733 -0.65810966 1.952
-0.16316062 -0.65349674 1.9520001
-0.1749492 -0.65400928 1.952
-0.17533711 -0.66410363 1.9640001
-0.18522131 -0.6639604 1.964
-0.18496224 -0.67761862 1.9750001
-0.18496224 -0.68453312 1.9750003
-0.19101241 -0.68539745 1.9750001
-0.18565106 -0.69447237 1.9640001
-0.19424599 -0.69447243 1.9640001
-0.19424599 -0.70134842 1.9640001
-0.094646037 -0.48506099 1.9310001
-0.10478669 -0.49351153 1.931
-0.094646029 -0.49351147 1.931
-0.10478669 -0.49351153 1.931
-0.0441126 -0.50456417 1.9200001
-0.054195486 -0.50456411 1.9200001
-0.066759259 -0.50449717 1.9310001
-0.073941126 -0.50246352 1.9200001
-0.083351806 -0.50212747 1.9200001
-0.10478669 -0.50365216 1.931
-0.11492733 -0.5036521 1.931
-0.055773564 -0.5154829 1.9310001
-0.064646624 -0.51421535 1.931
-0.074364744 -0.51379281 1.931
-0.10643041 -0.51646757 1.9200001
-0.11427264 -0.51422691 1.9200001
-0.064224102 -0.53407413 1.931
-0.064224102 -0.52393347 1.931
-0.074364744 -0.52393341 1.931
-0.11427264 -0.52472991 1.9200001
-0.064224102 -0.53407413 1.931
-0.11661744 -0.53745431 1.9310001
-0.12281451 -0.53520083 1.9310001
-0.064224102 -0.54421473 1.931
-0.12435552 -0.54405546 1.9200001
-0.13107745 -0.54279506 1.9200001
-0.064224102 -0.55435538 1.931
-0.074364744 -0.55435544 1.931
-0.084505394 -0.55435544 1.931
-0.12506799 -0.55532122 1.9310001
-0.13520864 -0.55435544 1.931
-0.074364752 -0.56449604 1.931
-0.084505394 -0.56449598 1.931
-0.12506798 -0.56449604 1.931
-0.13520864 -0.56449604 1.931
-0.074364752 -0.57463664 1.931
-0.084505402 -0.5746367 1.931
-0.094646037 -0.5746367 1.931
-0.12506799 -0.5746367 1.931
-0.13520862 -0.57463676 1.931
0.88637626 -0.58878422 1.8280001
-0.084505402 -0.5847773 1.931
-0.093680277 -0.58526021 1.9310001
-0.10478668 -0.58526027 1.9310001
-0.12506799 -0.5847773 1.931
-0.1347861 -0.58435482 1.931
0.8912251 -0.59843993 1.8380001
0.8912251 -0.59843993 1.8380001
0.8912251 -0.59843993 1.8380001
-0.092955939 -0.59491801 1.9310001
-0.10411065 -0.59491801 1.9310001
-0.11492733 -0.59491795 1.931
-0.12422293 -0.59407294 1.9310001
-0.13726793 -0.59596026 1.9410002
-0.14652672 -0.5950259 1.9410001
-0.096268758 -0.60592693 1.9410002
-0.10617878 -0.60564375 1.9410001
-0.11492734 -0.60167837 1.9310001
-0.13590884 -0.60479432 1.9410002
-0.14610198 -0.60479432 1.9410002
-0.15629517 -0.60479432 1.9410002
-0.085622571 -0.61702615 1.9410002
-0.095136188 -0.61498755 1.9410002
-0.10575406 -0.61541224 1.9410001
-0.1155225 -0.61498749 1.9410002
-0.12614039 -0.61541224 1.9410001
-0.13590883 -0.61498749 1.9410002
-0.14610198 -0.61498749 1.9410002
-0.15629517 -0.61498749 1.9410002
-0.094711468 -0.62475592 1.9410001
-0.10419677 -0.62404811 1.9410002
-0.11665508 -0.62291551 1.9410002
-0.12571569 -0.6251806 1.9410002
-0.15629517 -0.6251806 1.9410002
-0.094003618 -0.63480759 1.9410002
-0.10193162 -0.63197607 1.9410001
-0.11503821 -0.6275847 1.9520001
-0.12620106 -0.63440311 1.9410002
-0.146102 -0.63537383 1.9410002
-0.15629517 -0.63537389 1.9410002
-0.096814334 -0.6463781 1.952
-0.10592626 -0.64580852 1.9519999
-0.1161772 -0.64580858 1.9519999
-0.14610201 -0.64556694 1.9410002
-0.1545963 -0.64556694 1.9410002
-0.16450302 -0.64678478 1.952
-0.10592627 -0.654351 1.952
-0.1161772 -0.65400928 1.952
-0.14561662 -0.65576017 1.9410002
-0.15444733 -0.65810966 1.952
-0.16316062 -0.65349674 1.9520001
-0.15547243 -0.66631043 1.952
-0.16600545 -0.66353065 1.9640001
-0.17533711 -0.66410363 1.9640001
-0.18522131 -0.6639604 1.964
-0.17533712 -0.67335349 1.9640001
-0.18565106 -0.67040658 1.9640001
-0.17576684 -0.68372869 1.964
-0.18496224 -0.68453312 1.9750003
-0.1770561 -0.69447243 1.9640001
-0.20799795 -0.75635618 1.9640001
-0.10311546 -0.43537635 1.9090002
-0.015873097 -0.44444671 1.909
-0.023391932 -0.44444668 1.9090002
-0.026887681 -0.45372963 1.9200001
-0.093567729 -0.45614266 1.9090002
-0.03192912 -0.46213201 1.9200001
-0.033894435 -0.46545175 1.9090002
-0.084378041 -0.46700323 1.909
-0.093567729 -0.4640792 1.9090002
-0.033417046 -0.47452205 1.9090002
-0.084864244 -0.47641611 1.9200001
-0.094106883 -0.47485566 1.9200002
-0.04344216 -0.48454714 1.9090002
-0.04344216 -0.48454714 1.9090002
-0.052512504 -0.48406976 1.9090002
-0.066378966 -0.48397827 1.9200001
-0.073941134 -0.48397827 1.9200001
-0.084444128 -0.48355815 1.9200001
-0.094646037 -0.48506099 1.9310001
-0.051239472 -0.49345839 1.9090002
-0.055119749 -0.49540552 1.9200001
-0.062897973 -0.49358106 1.9200002
-0.073521003 -0.49406117 1.9200001
-0.086758874 -0.49576497 1.9310001
-0.094646029 -0.49351147 1.931
-0.10478669 -0.49351153 1.931
-0.061337523 -0.50330383 1.9200001
-0.066759259 -0.50449717 1.9310001
-0.073941126 -0.50246352 1.9200001
-0.087885611 -0.5036521 1.9310001
-0.095128924 -0.50365216 1.9310001
-0.10478669 -0.50365216 1.931
-0.064646624 -0.51421535 1.931
-0.074364744 -0.51379281 1.931
-0.084505394 -0.51379281 1.931
-0.095128931 -0.51379275 1.9310001
-0.10436416 -0.51337028 1.931
-0.064224102 -0.52393347 1.931
-0.074364744 -0.52393341 1.931
-0.084505402 -0.52393341 1.931
-0.10418977 -0.52430987 1.9200001
-0.11427264 -0.52472991 1.9200001
-0.12491569 -0.53383255 1.9200001
-0.064224102 -0.53407413 1.931
-0.074364744 -0.53407413 1.931
-0.08197023 -0.53491914 1.9310001
-0.09410689 -0.53439265 1.9200001
-0.10486197 -0.53237611 1.9200001
-0.11661744 -0.53745431 1.9310001
-0.12281451 -0.53520083 1.9310001
-0.074364744 -0.54421479 1.931
-0.084082864 -0.54463726 1.931
-0.091265827 -0.54759496 1.9310001
-0.10430381 -0.54421473 1.9310001
-0.11628922 -0.54380339 1.9200001
-0.12435552 -0.54405546 1.9200001
-0.074364744 -0.55435544 1.931
-0.084505394 -0.55435544 1.931
-0.094646044 -0.55435538 1.931
-0.10478669 -0.55435544 1.931
-0.11450481 -0.55477792 1.931
-0.12506799 -0.55532122 1.9310001
-0.084505394 -0.56449598 1.931
-0.094646044 -0.56449604 1.931
-0.10478669 -0.56449604 1.931
-0.11492734 -0.56449598 1.931
-0.12506798 -0.56449604 1.931
-0.094646037 -0.5746367 1.931
-0.10532935 -0.57591367 1.9410001
-0.11492733 -0.5746367 1.931
-0.12506799 -0.5746367 1.931
-0.13520862 -0.57463676 1.931
0.8912251 -0.59843993 1.8380001
0.88637626 -0.58878422 1.8280001
-0.10532936 -0.58440799 1.9410002
-0.11492733 -0.58477736 1.931
-0.12506799 -0.5847773 1.931
-0.1347861 -0.58435482 1.931
-0.12422293 -0.59407294 1.9310001
-0.13726793 -0.59596026 1.9410002
-0.11492734 -0.60167837 1.9310001
-0.12571567 -0.60521901 1.9410001
-0.13590884 -0.60479432 1.9410002
-0.12614039 -0.61541224 1.9410001
-0.13590883 -0.61498749 1.9410002
-0.14610198 -0.61498749 1.9410002
-0.14610198 -0.61498749 1.9410002
-0.10934325 -0.62872368 1.9520001
-0.11665508 -0.62291551 1.9410002
-0.12571569 -0.6251806 1.9410002
-0.13590883 -0.6251806 1.9410002
-0.14610198 -0.6251806 1.9410002
-0.15629517 -0.6251806 1.9410002
-0.10690255 -0.63604575 1.952
-0.1161772 -0.63555765 1.9519999
-0.12620106 -0.63440311 1.9410002
-0.13590884 -0.63537389 1.9410002
-0.146102 -0.63537383 1.9410002
-0.146102 -0.63537383 1.9410002
-0.10690255 -0.63604575 1.952
-0.1161772 -0.64580858 1.9519999
-0.12471964 -0.64580858 1.952
-0.14610201 -0.64556694 1.9410002
-0.1545963 -0.64556694 1.9410002
-0.1161772 -0.65400928 1.952
-0.12301115 -0.654351 1.9520001
-0.13590884 -0.65576017 1.9410002
-0.14561662 -0.65576017 1.9410002
-0.15444733 -0.65810966 1.952
-0.1160079 -0.6649825 1.9410002
-0.12529096 -0.6655286 1.9410001
-0.14692998 -0.65947646 1.9520001
-0.15547243 -0.66631043 1.952
-0.16600545 -0.66353065 1.9640001
-0.17084882 -0.66289341 1.9520001
-0.11830755 -0.674353 1.9310001
-0.12486625 -0.67529702 1.9410001
-0.17533712 -0.67335349 1.9640001
-0.17084882 -0.68510377 1.9520001
-0.17084882 -0.69364619 1.9520001
-0.20799795 -0.75635618 1.9640001
-0.20971693 -0.76495111 1.9640001
-0.086429186 -0.37563455 1.8989999
-0.086429186 -0.38560715 1.8989999
-0.085479423 -0.39510491 1.8990002
-0.0033241997 -0.41884917 1.899
-0.083542615 -0.40768799 1.9090002
-0.013296799 -0.42882177 1.899
-0.083542615 -0.41771311 1.9090002
-0.094124675 -0.41548532 1.9090002
-0.013296799 -0.42882177 1.899
-0.023391932 -0.43386465 1.9090002
-0.083542623 -0.42439651 1.9090002
-0.093567729 -0.42439651 1.9090002
-0.016708523 -0.4344216 1.9090002
-0.023269398 -0.43547016 1.899
-0.083960332 -0.43400386 1.9090002
-0.093567729 -0.43442157 1.9090002
-0.023391932 -0.44444668 1.9090002
-0.030248642 -0.44700772 1.9200001
-0.076456599 -0.44544274 1.8989999
-0.086429186 -0.4454428 1.8989999
-0.094124675 -0.44333285 1.9090002
-0.026887681 -0.45372963 1.9200001
-0.036758751 -0.45447183 1.9090002
-0.04344216 -0.45447186 1.9090002
-0.076872118 -0.45541537 1.899
-0.084767096 -0.45541534 1.899
-0.033894435 -0.46545175 1.9090002
-0.04344216 -0.46449694 1.9090002
-0.053467274 -0.464497 1.9090002
-0.063492388 -0.46449694 1.9090002
-0.073517501 -0.46616778 1.9090002
-0.084378041 -0.46700323 1.909
-0.04344216 -0.47452205 1.9090002
-0.053049561 -0.47410437 1.9090002
-0.063074678 -0.47410434 1.9090002
-0.073268943 -0.47591195 1.9200001
-0.084864244 -0.47641611 1.9200001
-0.057136323 -0.48397827 1.9200001
-0.061264586 -0.48343325 1.9090002
-0.073941134 -0.48397827 1.9200001
-0.080200911 -0.48454717 1.909
-0.082007423 -0.49406114 1.9200001
-0.087885611 -0.5036521 1.9310001
-0.084505394 -0.51379281 1.931
-0.092426404 -0.51086593 1.9200001
-0.074364744 -0.52393341 1.931
-0.084505402 -0.52393341 1.931
-0.09410689 -0.52430981 1.9200001
-0.10418977 -0.52430987 1.9200001
-0.074364744 -0.53407413 1.931
-0.086544722 -0.53355241 1.9200001
-0.09410689 -0.53439265 1.9200001
-0.10140647 -0.53745431 1.9310001
-0.11239217 -0.54336971 1.9310001
-0.10430381 -0.54421473 1.9310001
-0.11239217 -0.54336971 1.9310001
-0.094646044 -0.55435538 1.931
-0.10478669 -0.55435544 1.931
-0.11450481 -0.55477792 1.931
-0.10478669 -0.56449604 1.931
-0.11492734 -0.56449598 1.931
-0.12506798 -0.56449604 1.931
-0.14610198 -0.61498749 1.9410002
-0.13590883 -0.6251806 1.9410002
-0.14610198 -0.6251806 1.9410002
-0.12620106 -0.63440311 1.9410002
-0.13590884 -0.63537389 1.9410002
-0.146102 -0.63537383 1.9410002
-0.12471964 -0.64580858 1.952
-0.13590884 -0.64556694 1.9410002
-0.14610201 -0.64556694 1.9410002
-0.12614039 -0.65618485 1.9410001
-0.13590884 -0.65576017 1.9410002
-0.12529096 -0.6655286 1.9410001
-0.13633355 -0.6655286 1.9410001
-0.14707278 -0.66595328 1.9410002
-0.15547243 -0.66631043 1.952
-0.16600545 -0.66353065 1.9640001
-0.11830755 -0.674353 1.9310001
-0.12486625 -0.67529702 1.9410001
-0.13760769 -0.67614645 1.9410002
-0.14436726 -0.67656136 1.9520001
-0.15319444 -0.67656136 1.952
-0.16600545 -0.67335349 1.9640001
-0.12502773 -0.68630809 1.9200001
-0.13464527 -0.68618381 1.9310001
-0.14567728 -0.68633962 1.9410001
-0.15814719 -0.6841585 1.9640001
-0.16502316 -0.68415844 1.9640001
-0.13667905 -0.69571877 1.9200001
-0.14723459 -0.69540024 1.9410002
-0.15516259 -0.69766539 1.9410002
-0.16486911 -0.69620895 1.9520001
-0.15591246 -0.70604259 1.931
-0.16648833 -0.7050271 1.9410002
-0.1742658 -0.71073109 1.9520001
-0.17328379 -0.71352142 1.9410002
-0.18816535 -0.74364752 1.9310001
-0.036354385 -0.33379939 1.8880002
-0.046269227 -0.33379936 1.8880002
-0.056184053 -0.34371421 1.8880002
-0.056184053 -0.34371421 1.8880002
-0.065819159 -0.34704643 1.899
-0.0099725993 -0.34571677 1.899
-0.016620999 -0.34239256 1.899
-0.058173496 -0.35735148 1.899
-0.06606847 -0.35610485 1.899
-0.076456591 -0.35568941 1.8989999
-0.065272652 -0.36602259 1.8880001
-0.072708778 -0.36684883 1.8880001
-0.076872118 -0.36524647 1.899
-0.072708778 -0.37345871 1.8880001
-0.077406369 -0.37563458 1.8990002
-0.072708778 -0.38667849 1.8880001
-0.076872125 -0.38519162 1.899
0.0065748789 -0.39120531 1.8780001
0.0065748789 -0.39120531 1.8780001
-0.067751363 -0.39659333 1.8880002
-0.067751363 -0.39659333 1.8880002
-0.076456599 -0.39557976 1.8989999
-0.0033241997 -0.41884917 1.899
-0.068302184 -0.40540648 1.8880002
-0.068302184 -0.40540648 1.8880002
-0.076456599 -0.40602726 1.8990002
-0.0033241997 -0.41884917 1.899
-0.013296799 -0.42882177 1.899
-0.059835594 -0.42882177 1.899
-0.066098884 -0.41311803 1.8880001
-0.066098884 -0.41311803 1.8880001
-0.075625539 -0.41303182 1.899
-0.083542615 -0.41771311 1.9090002
-0.023391932 -0.43386465 1.9090002
-0.043214597 -0.43380806 1.899
-0.059835594 -0.42882177 1.899
-0.065154321 -0.42616239 1.899
-0.073935211 -0.42481422 1.9090002
-0.083542623 -0.42439651 1.9090002
-0.023391932 -0.43386465 1.9090002
-0.033417046 -0.43609247 1.9090002
-0.043214597 -0.43380806 1.899
-0.056511398 -0.43380809 1.899
-0.066483997 -0.43491611 1.899
-0.073517501 -0.43275076 1.9090002
-0.083960332 -0.43400386 1.9090002
-0.034371819 -0.44396934 1.9090002
-0.04344216 -0.44444671 1.9090002
-0.053049561 -0.44444674 1.9090002
-0.063492388 -0.44444674 1.9090002
-0.076456599 -0.44544274 1.8989999
-0.076456599 -0.44544274 1.8989999
-0.04344216 -0.45447186 1.9090002
-0.053467274 -0.45447186 1.9090002
-0.063492395 -0.45447186 1.9090002
-0.071846649 -0.45781353 1.909
-0.053467274 -0.464497 1.9090002
-0.063492388 -0.46449694 1.9090002
-0.073517501 -0.46616778 1.9090002
-0.14467324 -0.6970005 1.9310001
-0.15591246 -0.70604259 1.931
-0.046269227 -0.33379936 1.8880002
-0.0056656199 -0.34324211 1.8880002
-0.046269219 -0.34371424 1.8880002
0 -0.34371424 1.8880002
-0.042736713 -0.34846857 1.8780001
-0.046024151 -0.35504347 1.8780001
-0.058173496 -0.35735148 1.899
0.0098623186 -0.36819321 1.8780001
-0.0099725993 -0.34571677 1.899
-0.046024151 -0.35504347 1.8780001
-0.049574167 -0.36189139 1.8880001
