# .PCD v0.7 - Point Cloud Data file format
VERSION 0.7
FIELDS x y z
SIZE 4 4 4
TYPE F F F
COUNT 1 1 1
WIDTH 1146
HEIGHT 1
VIEWPOINT 0 0 0 1 0 0 0
POINTS 1146
DATA ascii
-0.11345109 0.23196696 1.7360001
-0.14586568 0.24766777 1.7360001
-0.13553353 0.24675611 1.7360001
-0.14586568 0.25222605 1.7360001
-0.13492577 0.25283384 1.7360001
-0.084002122 0.13745803 1.7450001
-0.079420194 0.13745803 1.7450001
-0.13745803 0.14967652 1.7450001
-0.083493024 0.1461128 1.7450001
-0.078809276 0.14540003 1.7450001
-0.21993284 0.15884039 1.7450001
-0.21993284 0.16494963 1.7450002
-0.17105888 0.16800426 1.7450001
-0.16433871 0.16678241 1.7450001
-0.15578577 0.16800426 1.7450002
-0.14865832 0.16698605 1.7450002
-0.13440341 0.16189501 1.7450001
-0.23520595 0.1741135 1.7450001
-0.22604209 0.1741135 1.7450002
-0.21993284 0.1741135 1.7450002
-0.18327737 0.17105888 1.7450001
-0.17105888 0.1741135 1.7450002
-0.16494964 0.1741135 1.745
-0.15578578 0.1741135 1.745
-0.14700371 0.1741135 1.745
-0.11302105 0.17716812 1.7450001
-0.10793 0.1761499 1.7450002
-0.25047907 0.18633199 1.7450001
-0.24406436 0.18572107 1.7450001
-0.23520593 0.18480468 1.7450002
-0.22604206 0.18480468 1.7450002
-0.21687821 0.18577661 1.7450002
-0.20465973 0.18938661 1.7450001
-0.17472443 0.18266645 1.7450001
-0.16427083 0.18395618 1.745
-0.15578578 0.18480468 1.7450002
-0.1466219 0.18327737 1.745
-0.13501433 0.18541561 1.7450001
-0.12493408 0.18572107 1.7450001
-0.11607566 0.18480468 1.7450002
-0.10620688 0.18562709 1.7450004
-0.24742445 0.19244124 1.7450001
-0.23291498 0.1947322 1.7450001
-0.22604206 0.19549586 1.745
-0.2153509 0.19549587 1.7450002
-0.20553248 0.19593224 1.7450001
-0.16494963 0.19549587 1.7450002
-0.15622215 0.19549587 1.7450001
-0.14394909 0.19549586 1.745
-0.13440342 0.19549586 1.745
-0.12523954 0.19549586 1.745
-0.11607566 0.19549586 1.745
-0.10538448 0.19549587 1.7450002
-0.097747929 0.19702317 1.7450001
-0.22420931 0.2040488 1.7450001
-0.2153509 0.20465973 1.7450002
-0.20465972 0.20465972 1.745
-0.19702317 0.20465973 1.7450001
-0.16418597 0.20542338 1.7450001
-0.15578577 0.20465972 1.745
-0.1441782 0.20496519 1.7450001
-0.13478523 0.20427789 1.745
-0.1243668 0.20422335 1.7450001
-0.11607566 0.20465972 1.745
-0.10538448 0.20465973 1.7450002
-0.095566057 0.2050961 1.7450001
-0.087056749 0.20771435 1.7450001
-0.22400568 0.21687822 1.7450002
-0.21535088 0.21535088 1.7450004
-0.20465973 0.2153509 1.7450002
-0.19593224 0.21775097 1.7450001
-0.18694292 0.218711 1.7450001
-0.17105888 0.21993284 1.7450001
-0.16342233 0.21535088 1.745
-0.1557858 0.2153509 1.7450002
-0.1450946 0.21535088 1.7450004
-0.13440341 0.2153509 1.7450002
-0.12496185 0.21576743 1.7450002
-0.11607565 0.2153509 1.7450002
-0.10538448 0.21535088 1.7450004
-0.096220613 0.21535088 1.745
-0.088584058 0.21229628 1.7450001
-0.22604209 0.22604209 1.7450001
-0.21493435 0.22576436 1.7450002
-0.20465972 0.22604206 1.745
-0.19549586 0.22566023 1.745
-0.18572107 0.2257366 1.7450001
-0.17350258 0.22543116 1.7450001
-0.16456781 0.22604206 1.745
-0.15578577 0.22604206 1.745
-0.1450946 0.22604206 1.7450002
-0.13440341 0.22604206 1.745
-0.12523954 0.22604206 1.745
-0.11607566 0.22604206 1.745
-0.10538448 0.22604206 1.7450002
-0.21321265 0.23337317 1.7450001
-0.2040488 0.23337317 1.7450001
-0.19511403 0.23482412 1.745
-0.18480468 0.23520593 1.7450002
-0.1741135 0.23520595 1.745
-0.16494964 0.23520592 1.745
-0.15578577 0.23520595 1.745
-0.1450946 0.23520592 1.7450002
-0.13440342 0.23520595 1.745
-0.12523954 0.23520596 1.745
-0.11709388 0.23622417 1.7450001
-0.10580102 0.23492825 1.7450002
-0.19244124 0.2413152 1.7450001
-0.18378648 0.24233341 1.7450001
-0.1741135 0.24207886 1.7450001
-0.16393143 0.24335162 1.7450001
-0.15578577 0.24436982 1.745
-0.14458548 0.24335162 1.745
-0.13440341 0.24436983 1.7450001
-0.12523954 0.24436985 1.745
-0.11607566 0.24436985 1.745
-0.10729362 0.24398802 1.745
-0.16189501 0.25047907 1.7450001
-0.15476756 0.25251549 1.7450001
-0.14444001 0.25789747 1.7450001
-0.13363975 0.25582466 1.7450001
-0.12493408 0.25414461 1.7450001
-0.11607566 0.25506097 1.7450002
-0.10843911 0.25200638 1.7450001
-0.11667433 0.1074632 1.7540001
-0.10439283 0.1074632 1.7540001
-0.13509659 0.11974471 1.7540001
-0.12550166 0.11629054 1.7539999
-0.11549341 0.11572959 1.7539999
-0.10439282 0.11513915 1.7539999
-0.096716881 0.11590675 1.7540001
-0.085970573 0.1176978 1.7540001
-0.076320812 0.11535846 1.7540001
-0.15474702 0.12834178 1.7540001
-0.14635466 0.1279324 1.7540001
-0.13356142 0.12588547 1.7540001
-0.12588547 0.12588547 1.7539999
-0.11667433 0.12588547 1.7540001
-0.10132245 0.12895584 1.7540001
-0.093646511 0.12742066 1.7540001
-0.085970566 0.12588546 1.7539999
-0.07829462 0.12588547 1.7540001
-0.18115225 0.13816698 1.7540001
-0.17808188 0.13816698 1.7540001
-0.15428646 0.13279381 1.7540001
-0.14469154 0.1354804 1.7539999
-0.13509659 0.13509661 1.7539999
-0.12588546 0.13509659 1.7539999
-0.11667433 0.13202623 1.7540001
-0.093646511 0.13509661 1.7540001
-0.086409189 0.13421935 1.7540001
-0.076375633 0.1347128 1.7539999
-0.22106716 0.14584291 1.7540001
-0.21492641 0.14584291 1.7540001
-0.20725048 0.14584291 1.7540001
-0.19957453 0.1473781 1.7540001
-0.18299448 0.14430773 1.7540001
-0.1780819 0.14430773 1.7540001
-0.14430773 0.14430773 1.7539999
-0.13509659 0.14430773 1.7539999
-0.12588546 0.14430773 1.7539999
-0.10132245 0.1473781 1.7540001
-0.09430445 0.14474636 1.7540001
-0.087812796 0.14369366 1.7540001
-0.074917205 0.14369367 1.7540001
-0.22413754 0.1555658 1.7539999
-0.21492642 0.15505408 1.7539999
-0.20673874 0.15556578 1.7539999
-0.19518827 0.15615062 1.7540001
-0.18345505 0.15543784 1.7539999
-0.17654669 0.15658924 1.7540001
-0.16580038 0.15965962 1.7540001
-0.15308025 0.15702789 1.7540001
-0.14430773 0.15505406 1.7539999
-0.13481748 0.15547276 1.7539999
-0.12588549 0.15505406 1.7539999
-0.11913063 0.15474702 1.7540001
-0.10371052 0.15624811 1.7539999
-0.095181704 0.15505406 1.7539999
-0.086652867 0.15556578 1.7539999
-0.077373512 0.15290479 1.7540001
-0.23396276 0.1661074 1.7539999
-0.22567272 0.16580038 1.7540001
-0.21594988 0.16477692 1.7540001
-0.19036339 0.16580036 1.7540001
-0.18422262 0.16580036 1.7539999
-0.17539531 0.16541657 1.7539999
-0.16656797 0.1634976 1.7540001
-0.15571199 0.16404589 1.7540001
-0.14392394 0.16541657 1.7539999
-0.13509661 0.16618416 1.7539999
-0.12588546 0.16580038 1.7539999
-0.11590675 0.16695178 1.7539999
-0.10400903 0.16618417 1.7539999
-0.095181696 0.16580036 1.7539999
-0.087812796 0.1651863 1.7540001
-0.25177094 0.17654669 1.7540001
-0.24563017 0.17539531 1.7539999
-0.2347443 0.17501152 1.7539999
-0.22413754 0.1750115 1.7540001
-0.2164616 0.1750115 1.7540001
-0.20571528 0.17808188 1.7540001
-0.19036339 0.17501152 1.7540001
-0.18422264 0.1753953 1.7539999
-0.17654669 0.17501152 1.7540001
-0.14200494 0.17501152 1.7540001
-0.13509659 0.17501152 1.7539999
-0.12588547 0.17501152 1.7539999
-0.11575323 0.17439744 1.7539999
-0.10351558 0.1745729 1.7540001
-0.095181696 0.1750115 1.7540001
-0.08904095 0.17501152 1.7540001
-0.25484133 0.18422264 1.7540001
-0.24716537 0.18115225 1.7540001
-0.21308418 0.18360856 1.7540001
-0.20622703 0.1852461 1.7540001
-0.19343376 0.18575782 1.7540001
-0.18422262 0.18422265 1.7539999
-0.17424391 0.18499023 1.7540001
-0.16887075 0.18422264 1.7540001
-0.14277254 0.18575782 1.7540001
-0.13202623 0.18268745 1.7540001
-0.12742066 0.18115225 1.7540001
-0.10234591 0.18217573 1.7540001
-0.095181689 0.18422265 1.7539999
-0.089040942 0.18268745 1.7540001
-0.26098207 0.19496895 1.7540001
-0.25484133 0.19496894 1.7539999
-0.24524637 0.19688794 1.7539999
-0.23826127 0.19711822 1.7540001
-0.20418008 0.19266617 1.7540001
-0.1956269 0.19496897 1.7539999
-0.18422265 0.1947984 1.7539999
-0.1750115 0.19496897 1.7539999
-0.16618416 0.19496894 1.7539999
-0.15198369 0.19548069 1.7540001
-0.14226082 0.19241032 1.7540001
-0.094499387 0.1947984 1.7539999
-0.08904095 0.19650416 1.7540001
-0.26200554 0.20776221 1.7540001
-0.2539641 0.20527667 1.7540001
-0.24650742 0.20527667 1.7540001
-0.23368981 0.20503299 1.7539999
-0.22720791 0.20878565 1.7540001
-0.19435489 0.20571528 1.7539999
-0.18422262 0.20571528 1.7539999
-0.17462772 0.2053315 1.7539999
-0.16641444 0.20510121 1.7540001
-0.15044849 0.20418009 1.7540001
-0.13202623 0.20878565 1.7540001
-0.12895584 0.20725048 1.7540001
-0.092111319 0.20418009 1.7540001
-0.089040942 0.20418009 1.7540001
-0.26251727 0.21492641 1.7540001
-0.2539641 0.21492642 1.7540001
-0.24716535 0.21492641 1.7540001
-0.23247144 0.21536507 1.7540001
-0.22597976 0.21554048 1.7540001
-0.19431101 0.2131719 1.7540001
-0.18383884 0.2145426 1.7539999
-0.17552325 0.21594988 1.7540001
-0.16887075 0.2164616 1.7540001
-0.12895584 0.21185604 1.7540001
-0.092111319 0.21492642 1.7540001
-0.089040942 0.21799679 1.7540001
-0.25279444 0.22209063 1.7540001
-0.24563019 0.22413754 1.7539999
-0.23488383 0.22413753 1.7539999
-0.225161 0.225161 1.7540001
-0.18115225 0.22413754 1.7540001
-0.17562559 0.22475162 1.7540001
-0.16887075 0.22413754 1.7540001
-0.095795773 0.22475162 1.7540001
-0.089040942 0.22106716 1.7540001
-0.24255981 0.2302783 1.7540001
-0.23334868 0.23150645 1.7540001
-0.22413754 0.23334867 1.7539999
-0.21492641 0.23846596 1.7540001
-0.20648287 0.23872183 1.7540001
-0.19803934 0.23488386 1.7540001
-0.18115225 0.2302783 1.7540001
-0.17808188 0.2302783 1.7540001
-0.2026449 0.24255981 1.7540001
-0.19496897 0.244095 1.7540001
-0.18499021 0.24793297 1.7540001
-0.17501152 0.24747244 1.7540001
-0.16784731 0.24767712 1.7540001
-0.18268745 0.25177094 1.7540001
-0.17347631 0.25177094 1.7540001
-0.16426519 0.25330615 1.7540001
-0.11053358 0.25791168 1.7540001
-0.12742066 0.26098207 1.7540001
-0.11513915 0.26328486 1.7540001
-0.1074632 0.26098207 1.7540001
-0.21294309 0.077153295 1.7630001
-0.21397179 0.081268132 1.7630002
-0.20882826 0.081268132 1.7630002
-0.19134016 0.08949782 1.7630001
-0.18516791 0.087954752 1.7630002
-0.17590952 0.08795476 1.7630002
-0.16819417 0.087954752 1.7630001
-0.15392081 0.086797453 1.7630002
-0.14543396 0.086797453 1.7630002
-0.13733286 0.08949782 1.7630001
-0.19134018 0.095670089 1.7630002
-0.18516792 0.095670082 1.7630002
-0.17590952 0.095670082 1.7630002
-0.16621025 0.094788335 1.7630002
-0.15430659 0.09528432 1.7630002
-0.14504819 0.095670082 1.7630002
-0.1357898 0.095670082 1.7630002
-0.12653141 0.098756216 1.7630002
-0.11727301 0.098756216 1.7630001
-0.10492849 0.098756216 1.7630002
-0.095670089 0.098756216 1.7630002
-0.08949782 0.098756216 1.7630001
-0.19134018 0.10492849 1.7630002
-0.18516791 0.10492849 1.7630002
-0.17552374 0.10454271 1.7630002
-0.15430659 0.10647155 1.7630001
-0.14466242 0.10454272 1.7630002
-0.1357898 0.10492848 1.7630002
-0.12498833 0.10492849 1.7630004
-0.11380111 0.10454272 1.7630002
-0.10492849 0.10338542 1.7630002
-0.095670082 0.10492849 1.7630002
-0.085289463 0.10520904 1.7630004
-0.073449939 0.10678016 1.7630001
-0.067894898 0.10801461 1.7630001
-0.23392878 0.11603856 1.7630001
-0.22837375 0.11572994 1.7630001
-0.21602923 0.11727301 1.7630001
-0.2047134 0.11727302 1.7630002
-0.19486719 0.11418688 1.7630002
-0.18640237 0.11295243 1.7630001
-0.1759095 0.11110074 1.7630001
-0.16047885 0.11418688 1.7630001
-0.15430661 0.11418688 1.7630002
-0.1450482 0.11418688 1.7630002
-0.13578981 0.11418688 1.7630002
-0.12591417 0.11356965 1.7630001
-0.11110074 0.11264381 1.7630001
-0.094641373 0.11367252 1.7630002
-0.086797461 0.11418688 1.7630002
-0.075095877 0.11315817 1.7630002
-0.065690517 0.11462776 1.7630002
-0.23454602 0.12344527 1.7630002
-0.22734505 0.12498834 1.7630002
-0.21602921 0.12498834 1.7630004
-0.20608504 0.12481688 1.7630002
-0.19473492 0.12467971 1.7630004
-0.18516792 0.12609053 1.7630002
-0.17436644 0.12807447 1.7630001
-0.1643365 0.12691718 1.7630002
-0.15430659 0.1230595 1.7630002
-0.14436239 0.12378817 1.7630002
-0.13764147 0.12406249 1.7630001
-0.12035915 0.12653141 1.7630002
-0.11264381 0.12653141 1.7630002
-0.10531425 0.12614565 1.7630002
-0.096551843 0.12388615 1.7630002
-0.083325557 0.12035914 1.7630001
-0.074067168 0.12484807 1.7630004
-0.067894898 0.12035914 1.7630001
-0.22528762 0.13887593 1.7630002
-0.21602923 0.13578981 1.7630002
-0.2055364 0.13609841 1.7630004
-0.1944263 0.13578981 1.7630002
-0.18555367 0.13540404 1.7630002
-0.17552374 0.13540404 1.7630002
-0.16552889 0.13607036 1.7630004
-0.15482095 0.13681851 1.7630002
-0.14196207 0.13270366 1.7630001
-0.12035915 0.1357898 1.7630002
-0.11380111 0.13617556 1.7630002
-0.10448761 0.13578981 1.7630002
-0.098756216 0.13578981 1.7630002
-0.070981041 0.1357898 1.7630002
-0.24689054 0.14813432 1.7630001
-0.23454604 0.14813432 1.7630002
-0.22631633 0.1450482 1.7630002
-0.21602923 0.14196208 1.7630002
-0.20412557 0.14372557 1.7630002
-0.19442628 0.14504819 1.7630002
-0.18671097 0.14504819 1.7630001
-0.17436646 0.1450482 1.7630002
-0.16510804 0.1450482 1.7630004
-0.15430661 0.1450482 1.7630002
-0.12035915 0.1450482 1.7630002
-0.11418688 0.1450482 1.7630002
-0.10531425 0.14466242 1.7630002
-0.098756216 0.14350513 1.7630001
-0.24442163 0.15430659 1.7630001
-0.23454601 0.15430659 1.7630002
-0.22683069 0.15122046 1.7630001
-0.20291317 0.15430659 1.7630001
-0.19486718 0.15430659 1.7630002
-0.18671098 0.15507813 1.7630001
-0.17436646 0.15430659 1.7630002
-0.16510805 0.15430659 1.7630004
-0.15584967 0.15430659 1.7630002
-0.11380111 0.15430659 1.7630002
-0.10698591 0.15224916 1.7630002
-0.075610228 0.15584967 1.7630001
-0.25306281 0.16973725 1.7630001
-0.24457595 0.16665113 1.7630002
-0.23454604 0.16047886 1.7630002
-0.21397179 0.16870855 1.7630002
-0.20522776 0.16665111 1.7630004
-0.1955836 0.16587958 1.7630002
-0.11418688 0.16268323 1.7630002
-0.10801461 0.16356498 1.7630001
-0.083325565 0.16510805 1.7630002
-0.25614893 0.1759095 1.7630001
-0.24689054 0.17282338 1.7630001
-0.21294311 0.1759095 1.7630002
-0.2050875 0.17562898 1.7630004
-0.19596939 0.1759095 1.7630002
-0.095670082 0.17590952 1.7630001
-0.0864117 0.17590952 1.7630002
-0.2623212 0.18671098 1.7630001
-0.25923505 0.18208177 1.7630001
-0.20368469 0.18331622 1.7630001
-0.19596937 0.18362483 1.7630001
-0.085897341 0.18516791 1.7630002
-0.26540732 0.19596937 1.7630001
-0.19134016 0.19596937 1.7630001
-0.18516791 0.19648373 1.7630002
-0.095670082 0.19134016 1.7630001
-0.087440401 0.1944263 1.7630002
-0.26540732 0.20491914 1.7630001
-0.25923505 0.20831388 1.7630001
-0.24226135 0.20831388 1.7630001
-0.23763214 0.20985696 1.7630001
-0.17899564 0.20985696 1.7630001
-0.26849347 0.21602923 1.7630002
-0.25923505 0.21602923 1.7630001
-0.24226135 0.21602926 1.7630002
-0.23763214 0.21448615 1.7630001
-0.1748808 0.21397179 1.7630002
-0.16973725 0.21294309 1.7630001
-0.086411692 0.21602923 1.7630001
-0.26386428 0.22374456 1.7630001
-0.25692046 0.22528762 1.7630001
-0.24380443 0.2324886 1.7630002
-0.23300296 0.23608908 1.7630001
-0.22220148 0.24071828 1.7630001
-0.21602923 0.24277571 1.7630002
-0.20368469 0.24534747 1.7630001
-0.1944263 0.24843362 1.7630001
-0.17590952 0.25512025 1.7630002
-0.21558109 0.068241499 1.7720001
-0.22230184 0.075479239 1.7720002
-0.21403015 0.074057534 1.7720002
-0.20472449 0.07599622 1.7720002
-0.19619431 0.076771684 1.7720001
-0.18533771 0.076771684 1.7720001
-0.17525658 0.077547155 1.7720001
-0.16595091 0.077547155 1.7720001
-0.22457659 0.085612066 1.772
-0.21447329 0.08773908 1.7720003
-0.2044425 0.085724853 1.7720001
-0.19570082 0.084878877 1.7720001
-0.18611318 0.082199991 1.7720002
-0.17525658 0.082199983 1.7720002
-0.1637796 0.084681489 1.7720002
-0.15586978 0.081424512 1.7720001
-0.14268677 0.083750926 1.7720001
-0.13544905 0.0873698 1.7720002
-0.12717734 0.089954704 1.7720001
-0.23264147 0.09926036 1.7720001
-0.22488676 0.096158475 1.7720001
-0.21403013 0.096158482 1.7720002
-0.20472449 0.096158467 1.7720002
-0.19696979 0.096158475 1.7720002
-0.16439997 0.097399227 1.7720002
-0.15509431 0.09926036 1.7720001
-0.13027923 0.094607532 1.7720001
-0.12363233 0.095272221 1.7720003
-0.11414941 0.097399227 1.7720002
-0.10546413 0.096158475 1.7720001
-0.096158475 0.096158475 1.7720001
-0.085301876 0.098484889 1.7720001
-0.23535562 0.10585187 1.7720002
-0.22488678 0.10546413 1.7720001
-0.21403013 0.10546413 1.7720002
-0.20472449 0.10546414 1.7720002
-0.19696979 0.10546415 1.7720002
-0.17293017 0.1062396 1.7720001
-0.16439997 0.10546413 1.7720002
-0.15509433 0.10502101 1.7720003
-0.14889054 0.10856602 1.7720001
-0.080649041 0.10236225 1.7720001
-0.075220741 0.10313772 1.7720001
-0.066173576 0.10649809 1.7720001
-0.24194713 0.11632074 1.7720001
-0.23651883 0.11244338 1.7720001
-0.22395621 0.11445961 1.7720002
-0.21403013 0.11388355 1.7720003
-0.20516762 0.11388355 1.7720003
-0.19386789 0.11476979 1.7720001
-0.18456224 0.11632074 1.7720001
-0.17511557 0.11505179 1.7720001
-0.16478769 0.1147698 1.7720002
-0.062037725 0.11321885 1.7720001
-0.24349809 0.12407546 1.7720002
-0.22411127 0.12329998 1.7720001
-0.20472451 0.12407545 1.7720002
-0.19386789 0.12717734 1.7720001
-0.18611318 0.12407545 1.7720002
-0.1752566 0.12345508 1.7720002
-0.16517544 0.12174904 1.7720001
-0.067207538 0.12407546 1.7720001
-0.24476704 0.13535504 1.7720001
-0.23574337 0.13493204 1.7720001
-0.22604996 0.13376886 1.7720002
-0.20549996 0.13260564 1.7720001
-0.17990941 0.13027923 1.7720001
-0.10701507 0.136483 1.7720001
-0.2512528 0.1473396 1.7720001
-0.2446613 0.14540093 1.7720002
-0.23574337 0.14423773 1.7720002
-0.2264377 0.14268677 1.7720001
-0.071343385 0.14578865 1.7720001
-0.25202826 0.15586978 1.7720001
-0.24427354 0.15509431 1.7720001
-0.072894327 0.15509431 1.7720001
-0.25311396 0.1637796 1.7720002
-0.24582449 0.16207355 1.7720001
-0.080649041 0.16595091 1.7720001
-0.077547155 0.16284902 1.7720001
-0.2621094 0.17680752 1.7720001
-0.25435469 0.17060374 1.7720001
-0.081978425 0.17592126 1.7720003
-0.26366034 0.18301129 1.7720001
-0.26986411 0.20782638 1.7720001
-0.272966 0.21558109 1.7720001
-0.272966 0.22023392 1.7720001
-0.26614186 0.22767846 1.7720002
-0.25745657 0.22953959 1.7720001
-0.25280374 0.23264147 1.7720001
-0.24504901 0.23574336 1.7720001
-0.23574336 0.23884524 1.7720001
-0.22488675 0.24349807 1.7720001
-0.2124792 0.24659996 1.7720001
-0.20472449 0.2481509 1.7720001
-0.19438487 0.25332075 1.7720001
-0.18921506 0.25435469 1.7720001
-0.22322308 0.066717505 1.7810001
-0.21511722 0.064950846 1.7810001
-0.2065437 0.067808688 1.7810001
-0.23070541 0.077941015 1.7810001
-0.22654855 0.072744951 1.7810001
-0.20576429 0.071705744 1.7810001
-0.19433294 0.073264554 1.7810001
-0.18394081 0.072952799 1.7810001
-0.17458789 0.073264554 1.7810001
-0.23382305 0.084955707 1.7810001
-0.24005833 0.099764504 1.7810001
-0.23560458 0.094419979 1.7810003
-0.11613212 0.092749812 1.7810001
-0.24317598 0.10599978 1.7810001
-0.24551421 0.1145733 1.7810001
-0.24941127 0.12470564 1.7810001
-0.25252891 0.13561738 1.7810001
-0.24941126 0.13094091 1.7810001
-0.25460732 0.14393109 1.7810001
-0.22560446 0.064234599 1.7900001
-0.23291573 0.075201489 1.7900002
-0.24127144 0.087735064 1.7900001
-0.23657134 0.083034977 1.7900001
-0.24127144 0.094001859 1.7900002
-0.24597153 0.10340204 1.7900001
-0.24639341 0.10559718 1.8279999
-0.24371949 0.09652257 1.8380002
-0.23359373 0.086397685 1.8279999
-0.24130645 0.083652906 1.8380001
-0.23359373 0.07679794 1.8279999
-0.2271498 0.063704908 1.8380002
-0.25473279 0.14487927 1.8190001
-0.24518029 0.1337347 1.819
-0.25473276 0.13373472 1.819
-0.24518029 0.12418224 1.819
-0.24390665 0.11590341 1.8190001
-0.24639341 0.10559718 1.8279999
-0.11462976 0.095524803 1.819
-0.23359373 0.09599743 1.8279999
-0.24130644 0.10295741 1.8380001
-0.23359373 0.086397685 1.8279999
-0.1751288 0.074827753 1.8190001
-0.18468124 0.074827753 1.8190001
-0.19317237 0.07535845 1.819
-0.20442306 0.075464591 1.8190001
-0.22463398 0.074558005 1.8279999
-0.23359373 0.07679794 1.8279999
-0.204696 0.063228317 1.8190002
-0.21439426 0.065598242 1.8280001
-0.22159407 0.064798266 1.8280001
-0.18508181 0.25514838 1.8084002
-0.1962512 0.25480807 1.8082502
-0.20583257 0.24383242 1.8090003
-0.21533252 0.24383242 1.8090003
-0.2248325 0.24383242 1.8090003
-0.23668921 0.23668921 1.8190001
-0.24383242 0.23433246 1.8090003
-0.25491571 0.23433249 1.8090003
-0.25586572 0.22514918 1.8090003
-0.26585022 0.22470649 1.8080002
-0.27549899 0.2248325 1.8090003
-0.27549899 0.21533251 1.8090003
-0.27383775 0.21015456 1.8190001
-0.26494348 0.18313822 1.8090003
-0.085499682 0.17416602 1.8090003
-0.25729072 0.17337435 1.8090001
-0.26428527 0.17592482 1.8190001
-0.075999714 0.16466606 1.8090003
-0.075999714 0.16466606 1.8090003
-0.24518029 0.16557631 1.819
-0.25433475 0.1651783 1.8190001
-0.075999714 0.15516609 1.8090003
-0.24518029 0.15602383 1.819
-0.25473279 0.15602382 1.819
-0.075957701 0.14558384 1.8080002
-0.2248325 0.14566612 1.8090003
-0.23817515 0.14583452 1.8190001
-0.24518029 0.14487925 1.8190001
-0.25473279 0.14487927 1.8190001
-0.10467925 0.13413273 1.8190001
-0.18366598 0.12983285 1.8090001
-0.20378622 0.1337347 1.819
-0.2248325 0.13616617 1.8090003
-0.2372199 0.13373473 1.8190001
-0.24518029 0.1337347 1.819
-0.064916424 0.12508285 1.8090001
-0.16557629 0.12418224 1.819
-0.17512877 0.12418222 1.819
-0.18468125 0.12418224 1.819
-0.19423373 0.12418224 1.819
-0.20378621 0.12418224 1.819
-0.22562046 0.12327248 1.8190002
-0.24518029 0.12418224 1.819
-0.060499035 0.11462975 1.8190001
-0.16597433 0.11423173 1.8190001
-0.17512877 0.11462976 1.819
-0.18468127 0.11462975 1.819
-0.19423375 0.11462976 1.819
-0.20378621 0.11462975 1.819
-0.2149308 0.11462976 1.8190001
-0.22653022 0.11553951 1.8190002
-0.23522979 0.11502777 1.8190001
-0.24390665 0.11590341 1.8190001
-0.067404509 0.10495199 1.8090003
-0.075999714 0.10449962 1.8090003
-0.082333028 0.098166302 1.8090001
-0.14566612 0.10449962 1.8090003
-0.15437442 0.10687459 1.8090001
-0.16557631 0.10507727 1.819
-0.17512877 0.10507727 1.819
-0.19423375 0.10507727 1.819
-0.20378622 0.10507727 1.819
-0.21397555 0.10507727 1.8190001
-0.22439399 0.10559717 1.8280001
-0.23475736 0.10588807 1.8279998
-0.082333028 0.098166302 1.8090001
-0.095524788 0.095524788 1.819
-0.10507727 0.095524795 1.819
-0.11462976 0.095524803 1.819
-0.12418224 0.095524788 1.819
-0.13309787 0.093614303 1.8190001
-0.15666066 0.10316678 1.8190001
-0.16557629 0.095524795 1.819
-0.19423375 0.095524788 1.819
-0.20378621 0.095524795 1.819
-0.21493077 0.095524788 1.8190001
-0.22591396 0.09663742 1.8280001
-0.23359373 0.09599743 1.8279999
-0.12418224 0.085972317 1.819
-0.13774949 0.088666335 1.8090001
-0.14381789 0.083849542 1.8190001
-0.15693361 0.085517436 1.8190002
-0.16557631 0.085972309 1.819
-0.17512879 0.085972309 1.819
-0.18468125 0.085972317 1.819
-0.19423375 0.085972309 1.819
-0.20378622 0.085972309 1.819
-0.21493077 0.085972309 1.8190001
-0.22289118 0.085972309 1.8190001
-0.16557631 0.074827753 1.8190001
-0.1751288 0.074827753 1.8190001
-0.18468124 0.074827753 1.8190001
-0.19317237 0.07535845 1.819
-0.20442306 0.075464591 1.8190001
-0.21420711 0.07641983 1.8190001
-0.22463398 0.074558005 1.8279999
-0.21439426 0.065598242 1.8280001
-0.17416602 0.25491571 1.8090003
-0.1963326 0.24383242 1.8090003
-0.20583257 0.24383242 1.8090003
-0.21533252 0.24383242 1.8090003
-0.2248325 0.24383242 1.8090003
-0.23380469 0.23380467 1.8090003
-0.24383242 0.23433246 1.8090003
-0.25586572 0.22514918 1.8090003
-0.26585022 0.22470649 1.8080002
-0.085452415 0.21521524 1.8080002
-0.17416604 0.21533252 1.8090003
-0.17416604 0.21533252 1.8090003
-0.23472828 0.21493669 1.8090001
-0.24066576 0.21533254 1.8090003
-0.25491571 0.21533251 1.8090003
-0.26639488 0.21572836 1.8090001
-0.17416602 0.20583257 1.8090003
-0.23562782 0.20697038 1.8190001
-0.24066576 0.20583257 1.8090001
-0.25473279 0.21015456 1.8190001
-0.26587734 0.20378622 1.8190001
-0.085499682 0.19633259 1.8090003
-0.094999649 0.19633259 1.8090003
-0.18524931 0.1963326 1.8090003
-0.19633259 0.1963326 1.8090003
-0.26428527 0.19423375 1.819
-0.085499689 0.18524931 1.8090003
-0.1963326 0.18524931 1.8090003
-0.20583257 0.18568115 1.8090003
-0.25473279 0.18149711 1.8190001
-0.26428527 0.18786542 1.8190001
-0.085499682 0.17416602 1.8090003
-0.094999649 0.17416604 1.8090003
-0.19633259 0.17416604 1.8090003
-0.20569673 0.17576562 1.8190001
-0.21493077 0.1751288 1.8190001
-0.24518029 0.17512879 1.819
-0.25729072 0.17337435 1.8090001
-0.085499682 0.16466604 1.8090003
-0.10449961 0.16466606 1.8090003
-0.11462975 0.16239217 1.8190001
-0.1963326 0.16466606 1.8090003
-0.20697038 0.16557632 1.8190001
-0.21493077 0.16557632 1.8190001
-0.23562782 0.15602382 1.819
-0.24518029 0.16557631 1.819
-0.25433475 0.1651783 1.8190001
-0.075999714 0.15516609 1.8090003
-0.10507727 0.15283966 1.8190001
-0.11479124 0.15437442 1.8090001
-0.15358275 0.15358275 1.8090001
-0.16466606 0.15199943 1.8090001
-0.17507079 0.15471371 1.8090003
-0.18524933 0.15516609 1.8090003
-0.19633259 0.15516609 1.8090003
-0.2050409 0.15279108 1.8090001
-0.22698511 0.15647872 1.8190002
-0.23562782 0.15602382 1.819
-0.24518029 0.15602383 1.819
-0.10133296 0.14408278 1.8090001
-0.10571411 0.14487927 1.8190001
-0.1155829 0.14566612 1.8090003
-0.12508287 0.14566612 1.8090003
-0.1563133 0.14444508 1.8190001
-0.16528684 0.14531349 1.8190001
-0.17416602 0.14566612 1.8090003
-0.18524931 0.14566612 1.8090003
-0.19580483 0.14672169 1.8090003
-0.20449381 0.14364098 1.819
-0.21533252 0.14566612 1.8090003
-0.2248325 0.14566612 1.8090003
-0.23243247 0.14503279 1.8090003
-0.24518029 0.14487925 1.8190001
-0.075999714 0.13616616 1.8090003
-0.097435288 0.13437155 1.8190001
-0.10467925 0.13413273 1.8190001
-0.1155829 0.13616617 1.8090003
-0.12508285 0.13616617 1.8090003
-0.14527729 0.13453074 1.8190001
-0.15655452 0.1347961 1.8190001
-0.16557631 0.13532679 1.8190001
-0.17640245 0.13309787 1.8190001
-0.18568113 0.13645402 1.8090003
-0.19316594 0.13616616 1.8090003
-0.20378622 0.1337347 1.819
-0.21533254 0.13616619 1.8090003
-0.2248325 0.13616617 1.8090003
-0.064916424 0.12508285 1.8090001
-0.075999722 0.12508285 1.8090003
-0.085499689 0.12508285 1.8090003
-0.096586183 0.12312084 1.8190001
-0.10687459 0.12587452 1.8090001
-0.11463292 0.12539953 1.8090003
-0.12508287 0.12508285 1.8090001
-0.13616617 0.12508285 1.8090003
-0.14595401 0.12465104 1.8090003
-0.15453278 0.12444953 1.8090003
-0.16466606 0.12983285 1.8090003
-0.17099936 0.12983285 1.8090001
-0.18468125 0.12418224 1.819
-0.19423373 0.12418224 1.819
-0.20378621 0.12418224 1.819
-0.21493077 0.12418224 1.8190001
-0.22562046 0.12327248 1.8190002
-0.23562782 0.12418224 1.819
-0.066499755 0.11399959 1.8090003
-0.075999714 0.11399958 1.8090003
-0.085499682 0.11399958 1.8090003
-0.094999656 0.11241625 1.8090003
-0.11399958 0.11399958 1.8090003
-0.12508287 0.11399959 1.8090003
-0.13616617 0.11399957 1.8090003
-0.14566612 0.11399958 1.8090003
-0.1551661 0.11399958 1.8090003
-0.1614994 0.11716623 1.8090001
-0.17512877 0.11462976 1.819
-0.18468127 0.11462975 1.819
-0.19423375 0.11462976 1.819
-0.20378621 0.11462975 1.819
-0.2149308 0.11462976 1.8190001
-0.22653022 0.11553951 1.8190002
-0.23522979 0.11502777 1.8190001
-0.067404509 0.10495199 1.8090003
-0.075999714 0.10449962 1.8090003
-0.085499682 0.10449961 1.8090003
-0.095524788 0.1034852 1.8190001
-0.10571411 0.10316678 1.8190001
-0.11462976 0.1034852 1.8190001
-0.12508287 0.1044996 1.8090003
-0.13608915 0.10444009 1.8080002
-0.14566612 0.10449962 1.8090003
-0.15437442 0.10687459 1.8090001
-0.17512877 0.10507727 1.819
-0.18468127 0.10507727 1.819
-0.19423375 0.10507727 1.819
-0.086370341 0.095126778 1.8190001
-0.095524788 0.095524788 1.819
-0.10507727 0.095524795 1.819
-0.11462976 0.095524803 1.819
-0.12983285 0.098166302 1.8090001
-0.13722172 0.096055202 1.8090003
-0.14606196 0.095395491 1.8090001
-0.15199944 0.094999641 1.8090003
-0.16557629 0.095524795 1.819
-0.17512879 0.095524795 1.819
-0.18468127 0.095524788 1.819
-0.19423375 0.095524788 1.819
-0.13774949 0.088666335 1.8090001
-0.14629947 0.087399669 1.8090003
-0.15199943 0.087083012 1.8090001
-0.16557631 0.085972309 1.819
-0.17512879 0.085972309 1.819
-0.18468125 0.085972317 1.819
-0.19423375 0.085972309 1.819
-0.20378622 0.085972309 1.819
-0.21493077 0.085972309 1.8190001
-0.21420711 0.07641983 1.8190001
-0.1071306 0.25679836 1.8000001
-0.11523293 0.26422548 1.8000002
-0.12477565 0.26341525 1.8000001
-0.1071306 0.25679836 1.8000001
-0.16459911 0.25480938 1.8082502
-0.17416602 0.25491571 1.8090003
-0.18508181 0.25514838 1.8084002
-0.16466606 0.24383242 1.8090003
-0.17416601 0.24383241 1.8090003
-0.18515661 0.24403602 1.8069232
-0.1963326 0.24383242 1.8090003
-0.20583257 0.24383242 1.8090003
-0.17416602 0.23433246 1.8090003
-0.18524931 0.23433249 1.8090003
-0.19633259 0.23433246 1.8090003
-0.20583256 0.23433246 1.8090003
-0.21533252 0.23433246 1.8090003
-0.2248325 0.23433246 1.8090003
-0.23380469 0.23380467 1.8090003
-0.24256575 0.22609916 1.8090003
-0.08535789 0.22445437 1.8060002
-0.094735317 0.22420931 1.804
-0.16457327 0.22470996 1.8080002
-0.17407151 0.22470996 1.8080002
-0.18524931 0.22483252 1.8090003
-0.2248325 0.2248325 1.8090003
-0.23433246 0.2248325 1.8090003
-0.24677238 0.22448327 1.8190001
-0.25154862 0.22448325 1.8190001
-0.085452415 0.21521524 1.8080002
-0.094679296 0.21461831 1.803
-0.126036 0.21426123 1.8000001
-0.16448051 0.21509269 1.807
-0.17416604 0.21533252 1.8090003
-0.18524933 0.21533254 1.8090003
-0.19633259 0.21533252 1.8090003
-0.2248325 0.21533252 1.8090003
-0.23472828 0.21493669 1.8090001
-0.24677236 0.21493079 1.8190001
-0.25491571 0.21533251 1.8090003
-0.26639488 0.21572836 1.8090001
-0.085452415 0.20571704 1.8080002
-0.094945386 0.20571704 1.8080002
-0.12625131 0.20514986 1.8030001
-0.13616617 0.20583256 1.8090003
-0.1551661 0.20583257 1.8090003
-0.16448225 0.20560153 1.807
-0.17416602 0.20583257 1.8090003
-0.18568113 0.20612043 1.8090003
-0.1963326 0.20583257 1.8090003
-0.2248325 0.20583257 1.8090003
-0.23433244 0.20583259 1.8090001
-0.24624167 0.2048476 1.8190001
-0.25491571 0.20424925 1.8090001
-0.26428527 0.21095058 1.8190001
-0.085499682 0.19633259 1.8090003
-0.094999649 0.19633259 1.8090003
-0.14566612 0.19633259 1.8090003
-0.1551661 0.19633259 1.8090003
-0.16466606 0.1963326 1.8090003
-0.17416602 0.19633259 1.8090003
-0.18524931 0.1963326 1.8090003
-0.19633259 0.1963326 1.8090003
-0.20583259 0.19633259 1.8090003
-0.23433246 0.1963326 1.8090003
-0.2422491 0.19633262 1.8090003
-0.25473279 0.19423375 1.8190001
-0.26428527 0.19423375 1.819
-0.085499689 0.18524931 1.8090003
-0.094999656 0.18524931 1.8090003
-0.10441032 0.18509309 1.8075001
-0.12508287 0.18524931 1.8090001
-0.13616616 0.18524931 1.8090003
-0.14566612 0.18524931 1.8090003
-0.16466606 0.18524933 1.8090003
-0.17416602 0.18524931 1.8090003
-0.18524931 0.18524933 1.8090001
-0.1963326 0.18524931 1.8090003
-0.20583257 0.18568115 1.8090003
-0.21705356 0.1836199 1.8190001
-0.24358821 0.1830892 1.8190001
-0.25430673 0.18512753 1.8090003
-0.085499682 0.17416602 1.8090003
-0.094999649 0.17416604 1.8090003
-0.10449961 0.17416604 1.8090003
-0.11399958 0.17416601 1.8090003
-0.12508287 0.17416601 1.8090003
-0.13616616 0.17416602 1.8090003
-0.14566612 0.17416604 1.8090003
-0.17416604 0.17416599 1.8090003
-0.18524931 0.17416601 1.8090003
-0.18524931 0.17416601 1.8090003
-0.20569673 0.17576562 1.8190001
-0.21493077 0.1751288 1.8190001
-0.22607537 0.17512877 1.819
-0.23562782 0.17512877 1.819
-0.24518029 0.17512879 1.819
-0.25314072 0.1751288 1.8190001
-0.085499682 0.16466604 1.8090003
-0.094999649 0.16466606 1.8090003
-0.10449961 0.16466606 1.8090003
-0.11399958 0.16624938 1.8090003
-0.12508285 0.16466606 1.8090003
-0.13616617 0.16466606 1.8090003
-0.14527029 0.16506189 1.8090001
-0.15647872 0.16466656 1.8190002
-0.16597433 0.16517828 1.8190001
-0.17507078 0.16511844 1.8090003
-0.18524933 0.16466606 1.8090003
-0.18524933 0.16466606 1.8090003
-0.21493077 0.16557632 1.8190001
-0.22607534 0.16557631 1.819
-0.23562782 0.16557631 1.819
-0.075999714 0.15516609 1.8090003
-0.085499682 0.1551661 1.8090003
-0.094999649 0.1551661 1.8090003
-0.10449961 0.15556191 1.8090001
-0.11479124 0.15437442 1.8090001
-0.12508287 0.1551661 1.8090003
-0.13616617 0.15516607 1.8090003
-0.14527029 0.15477026 1.8090001
-0.15358275 0.15358275 1.8090001
-0.16557631 0.15693361 1.8190002
-0.17507079 0.15471371 1.8090003
-0.18524933 0.15516609 1.8090003
-0.19633259 0.15516609 1.8090003
-0.205909 0.1581466 1.8190001
-0.21533254 0.15358275 1.8090003
-0.22698511 0.15647872 1.8190002
-0.075957701 0.14558384 1.8080002
-0.085499682 0.14566612 1.8090003
-0.094999649 0.14566612 1.8090003
-0.10133296 0.14408278 1.8090001
-0.12508287 0.14566612 1.8090003
-0.13616617 0.14566612 1.8090003
-0.14328718 0.14328718 1.8190001
-0.17416602 0.14566612 1.8090003
-0.18524931 0.14566612 1.8090003
-0.19580483 0.14672169 1.8090003
-0.20583257 0.14883278 1.8090001
-0.21533252 0.14566612 1.8090003
-0.2248325 0.14566612 1.8090003
-0.075999714 0.13616616 1.8090003
-0.085499682 0.13616616 1.8090003
-0.093732983 0.13743283 1.8090003
-0.1155829 0.13616617 1.8090003
-0.12508285 0.13616617 1.8090003
-0.1357138 0.13707092 1.8090003
-0.14527729 0.13453074 1.8190001
-0.15516609 0.13299951 1.8090001
-0.17363825 0.13722172 1.8090003
-0.18568113 0.13645402 1.8090003
-0.075999722 0.12508285 1.8090003
-0.085499689 0.12508285 1.8090003
-0.093099654 0.12729953 1.8090003
-0.1040159 0.12365155 1.8190001
-0.11463292 0.12539953 1.8090003
-0.12508287 0.12508285 1.8090001
-0.13616617 0.12508285 1.8090003
-0.14595401 0.12465104 1.8090003
-0.15453278 0.12444953 1.8090003
-0.075999714 0.11399958 1.8090003
-0.085499682 0.11399958 1.8090003
-0.095524788 0.11781391 1.8190001
-0.10489543 0.11360376 1.8090001
-0.11399958 0.11399958 1.8090003
-0.12508287 0.11399959 1.8090003
-0.13616617 0.12508285 1.8090003
-0.10370795 0.1068746 1.8090001
-0.11399958 0.10766627 1.8090003
-0.1071306 0.25679836 1.8000001
-0.11506615 0.25566563 1.8008999
-0.12565003 0.25573334 1.8036002
-0.13473599 0.25380501 1.7900001
-0.14413619 0.25425264 1.7900002
-0.15596956 0.25423038 1.8025717
-0.16459911 0.25480938 1.8082502
-0.1071306 0.24261931 1.8000001
-0.1152138 0.2453021 1.8032143
-0.126036 0.24577022 1.8000001
-0.136539 0.24471991 1.8000001
-0.14533527 0.24537635 1.8000001
-0.15446143 0.24431366 1.8040909
-0.16466606 0.24383242 1.8090003
-0.17416601 0.24383241 1.8090003
-0.18515661 0.24403602 1.8069232
-0.1963326 0.24383242 1.8090003
-0.10397971 0.23474205 1.8
-0.11486608 0.23434338 1.8034616
-0.12559731 0.23495416 1.8006922
-0.13520226 0.23488531 1.8
-0.14500311 0.23483792 1.80075
-0.15474072 0.233683 1.804
-0.16466606 0.23433246 1.8090003
-0.17416602 0.23433246 1.8090003
-0.18524931 0.23433249 1.8090003
-0.19633259 0.23433246 1.8090003
-0.20583256 0.23433246 1.8090003
-0.21533252 0.23433246 1.8090003
-0.10415126 0.22408853 1.8030001
-0.11519954 0.22408941 1.803
-0.126036 0.22371393 1.8000001
-0.1354887 0.22371393 1.8000001
-0.14534754 0.22433186 1.8050001
-0.1547372 0.22420757 1.8040003
-0.16457327 0.22470996 1.8080002
-0.17407151 0.22470996 1.8080002
-0.18524931 0.22483252 1.8090003
-0.19633259 0.2248325 1.8090003
-0.20583259 0.2248325 1.8090003
-0.21533252 0.2248325 1.8090003
-0.2248325 0.2248325 1.8090003
-0.085452415 0.21521524 1.8080002
-0.094679296 0.21461831 1.803
-0.10358584 0.21465507 1.8000001
-0.11500786 0.21426122 1.8
-0.126036 0.21426123 1.8000001
-0.13594209 0.21497191 1.8060002
-0.14566612 0.21533251 1.8090003
-0.1551661 0.21533251 1.8090003
-0.16448051 0.21509269 1.807
-0.17416604 0.21533252 1.8090003
-0.18524933 0.21533254 1.8090003
-0.19633259 0.21533252 1.8090003
-0.20583256 0.21533252 1.8090003
-0.21533252 0.21533252 1.8090003
-0.2248325 0.21533252 1.8090003
-0.085452415 0.20571704 1.8080002
-0.094945386 0.20571704 1.8080002
-0.10397971 0.20480853 1.8000001
-0.11500786 0.20480852 1.8
-0.12625131 0.20514986 1.8030001
-0.13616617 0.20583256 1.8090003
-0.14566612 0.20583257 1.8090003
-0.1551661 0.20583257 1.8090003
-0.16448225 0.20560153 1.807
-0.1963326 0.20583257 1.8090003
-0.20583259 0.20583256 1.8090003
-0.21533252 0.20583256 1.8090003
-0.2248325 0.20583257 1.8090003
-0.094999649 0.19633259 1.8090003
-0.10420728 0.19578643 1.8040003
-0.11423589 0.19596078 1.8027
-0.12534711 0.19577833 1.8065455
-0.13616617 0.19633259 1.8090003
-0.14566612 0.19633259 1.8090003
-0.1551661 0.19633259 1.8090003
-0.16466606 0.1963326 1.8090003
-0.20583259 0.19633259 1.8090003
-0.21533252 0.19633259 1.8090003
-0.22443667 0.19672841 1.8090001
-0.23433246 0.1963326 1.8090003
-0.24836446 0.19582582 1.8190001
-0.10441032 0.18509309 1.8075001
-0.11399959 0.18524931 1.8090003
-0.12508287 0.18524931 1.8090001
-0.13616616 0.18524931 1.8090003
-0.14566612 0.18524931 1.8090003
-0.1551661 0.18524931 1.8090003
-0.16466606 0.18524933 1.8090003
-0.17416602 0.18524931 1.8090003
-0.20583257 0.18568115 1.8090003
-0.21705356 0.1836199 1.8190001
-0.22607534 0.18277077 1.8190001
-0.23602583 0.18428326 1.8190001
-0.24462411 0.18683265 1.8090001
-0.25430673 0.18512753 1.8090003
-0.10449961 0.17416604 1.8090003
-0.11399958 0.17416601 1.8090003
-0.14566612 0.17416604 1.8090003
-0.1551661 0.17416604 1.8090003
-0.16466606 0.17416601 1.8090003
-0.17416604 0.17416599 1.8090003
-0.18524931 0.17416601 1.8090003
-0.21493077 0.1751288 1.8190001
-0.22607537 0.17512877 1.819
-0.23562782 0.17512877 1.819
-0.13616617 0.16466606 1.8090003
-0.14527029 0.16506189 1.8090001
-0.15358275 0.1678327 1.8090001
-0.16597433 0.16517828 1.8190001
-0.17194463 0.16398424 1.8190001
-0.21493077 0.16557632 1.8190001
-0.22166584 0.15358275 1.8090001
-0.075957701 0.14558384 1.8080002
-0.085499682 0.14566612 1.8090003
-0.13616617 0.14566612 1.8090003
-0.075999714 0.13616616 1.8090003
-0.085499682 0.13616616 1.8090003
-0.13473599 0.25380501 1.7900001
-0.1449414 0.25364745 1.8000001
-0.136539 0.24471991 1.8000001
-0.14533527 0.24537635 1.8000001
-0.11486608 0.23434338 1.8034616
